1.3822214590729003,1.387639839724889,1.4593685367517184,1.5998336846955659,1.9550933113367535,2.2132916416557618,2.410406498829648,2.5745908999379843,2.6025135692525714,2.5999932362800924,2.5764553436444944,2.5073683655220336,2.539198077747855,2.6917226877785105,2.7243465108230938,2.4783330716505607,2.127304371006099,1.8677556866638232,1.7361864467283747,1.61102900420139,1.4419668042815967,1.45543666406261,1.7281872243351275,1.830428679115497,1.8257238414421961,1.9314434458200247,2.134206699280371,2.3449402107053476,2.4946145906405883,2.5359085005739215,2.3749407714015187,2.086381710459297,1.8201682891612567,1.7653957885012783,1.8922792091207363,2.001568434257048,1.9706449168250333,1.727568340279654,1.5581182211298756,1.4661727063566368,1.5066488545551922,1.5935769859051592,1.5629646327443765,1.2803318761372793,0.8463360199840662,0.7247490184685657,0.712914718996541,0.6631534127350825,0.7724423799953627,0.8837833036763617,0.9498263131250132,1.014065221858486,1.24717358659805,1.6476337884796166,2.018136338394654,2.26312760302829,2.3302841948590864,2.193523251908117,2.2431572779283977,2.347496093730717,2.505402060783149,2.634636154971117,2.5415174147736295,2.3049187347894584,2.122366616017358,2.1050683839343822,2.1593373079643245,2.261031734003379,2.333342530911784,2.356127057141571,2.526456238842717,2.7945517867751297,3.075729864689499,3.279963555485675,3.1974004917180165,3.1271709017401697,3.0775436173361364,3.083314882917282,3.211085014875395,3.1071519117492223,2.9126497992656133,2.8764165222499494,2.9766202222110394,2.8810854046365963,2.465412893050042,2.099327731922098,1.7115002505449841,1.1860200540611312,0.9254589438149281,0.8594120293863736,0.8440905091821181,0.7727117499298024,0.6634686109242328,0.6550323807564653,0.6957972764312433,0.9764793482190676,1.3372563891181326,1.569386703749731,1.7610579268402753,1.9291131012867793,1.9082008091523592,1.7886326569195912,1.693164546348538,1.7201198674104596,1.8305807062458237,1.9511867680603294,2.055864835899114,2.1102876474507517,2.1691526038884907,2.2466537085188905,2.500465318878817,2.6338273083791366,2.5636786177962607,2.7121253973040758,2.923550292788762,3.0560882578506856,3.0617551204785767,2.9505213258688783,2.8510707712770014,2.8661224794736206,2.851469889694633,2.665386692845259,2.411840105366673,2.256857457844821,1.8505117789298042,1.5079731584943665,1.3390551481155193,1.127965749347592,0.9250892969437343
1.5385775543376112,1.4837632409211243,1.414298842807097,1.477460529678842,1.6843449650404831,1.9012042640280693,2.1332046667014923,2.3783450665699606,2.4841026794572194,2.4393671560097676,2.379400921560521,2.363034303480155,2.4518118480479485,2.5637450761334777,2.5452926461934218,2.3323495608334346,2.043225382988272,1.8070763467041564,1.7169783663376585,1.7751972604281936,1.6518891298105944,1.5175583000605715,1.588724679981371,1.64693428132492,1.691430311618133,1.9415358001834309,2.228784446803969,2.3819217334456297,2.499528197380967,2.494464580469221,2.186256213246679,1.8260502940781422,1.6205661624060512,1.4922073915669969,1.4918093046534908,1.4986609602876069,1.4905124460919366,1.4403512109453198,1.2977820524618577,1.0877842429345468,1.1291107189266933,1.199254620383273,1.0792272531052511,0.9780439189405745,0.8231671847887329,0.8443329126515675,0.9255692410774709,0.9469882032030709,1.0144000923048835,0.9642297209788709,1.0383326826261476,1.0823907288998647,1.155206741793077,1.5776580406151801,1.9573262921265364,2.195445662462526,2.390008136357183,2.4584534820742636,2.5074632270621295,2.6235559586935646,2.788867756971439,2.906017522455292,2.828675711533388,2.6210314260257186,2.4593069043802305,2.452240143296553,2.4388419730522495,2.4255907553063705,2.525041015182783,2.600557837430971,2.743156799015768,2.996368295011359,3.2439851336678305,3.316961840167994,3.1542970288334136,3.1139770798309776,3.0322035587923826,2.9546356274304357,3.124428132270953,3.133480612474731,2.9704238295725305,2.867051422617334,2.8453467338490217,2.795775666419818,2.526816381140185,2.212458996790033,1.789804657432691,1.1990922321624018,0.8361163928624925,0.6403976949419384,0.6745768788497668,0.7250549331205881,0.6379822069959115,0.6094475610195476,0.611772571318011,0.9238919416908401,1.3285856759590207,1.6134318193824488,1.8721007826684908,2.0170710156698,1.868211220068237,1.7004704506118404,1.7456914072685528,1.8156365139345525,1.8640090288292879,2.0471567951844674,2.3079327898436337,2.381484596733094,2.398198168593897,2.4911980647803746,2.788867756971439,2.966389911653882,2.8841224474969924,2.862621701830028,2.922047612314774,3.00780030787451,3.0629185097742013,3.037755335031435,2.9118962855020696,2.771115423617009,2.720623296682764,2.6241347061867333,2.501736426676671,2.3784609634263267,1.9909104270920728,1.6730822293721832,1.5010791375122463,1.1610424763820553,0.8216999438493362
1.545107896436691,1.446277865255058,1.3701302045553727,1.4334850774140162,1.5809419445164246,1.724522161239862,1.9172619736768621,2.1630011185188662,2.3041719258027293,2.3055439368076995,2.2802859742037027,2.2829025317753002,2.348465670769081,2.419805122346336,2.393624737178275,2.221870440429421,1.9873449179596878,1.8320154455954147,1.8288638413081004,1.9664423894262575,1.8567884446929224,1.6783348509951768,1.6549743586494163,1.6437346476267705,1.675400148079785,1.9547558321980034,2.255267025841315,2.3893991068500493,2.481613917878862,2.4367830171392515,2.077964738105155,1.6803766765718078,1.4507895906203268,1.259184494312102,1.165060111271297,1.112900778955076,1.0993058492988683,1.069970314048062,0.9187148224858763,0.6800437033562123,0.6981022460781292,0.7668648161531778,0.7232798618786505,0.7795695577492374,0.788544085712688,0.9083711201538002,1.0539771373004934,1.098106062643393,1.1447632782763095,1.0851572966428298,1.178133320876693,1.2245092305988625,1.2562776420080939,1.6457277530531969,1.9987998679748398,2.23214127436293,2.4516489072355814,2.5848453034843546,2.6657791801649418,2.77524040861415,2.8947916630594723,2.964626334315055,2.8726120403203175,2.6819830047906734,2.546240009053659,2.556619592993523,2.5513433757136625,2.5508445697902062,2.7000690297296437,2.835814604226971,2.9909973267097016,3.212892504818414,3.3632947951112304,3.3069849849102,3.034889595534707,2.9525388005802653,2.8431816803688483,2.7281769277135908,2.8872235909708905,2.932586268926535,2.800057513722873,2.7073867410312373,2.7219063404569255,2.760216993102111,2.5746803460814225,2.29924004670356,1.8970373902930893,1.2840152300110526,0.8497139749578796,0.5780784890645458,0.6105568700274594,0.708532742114464,0.6775398007708725,0.6592540324259216,0.6247826381351643,0.9022940872783638,1.2998992883579361,1.6239282764236544,1.9158238111380783,2.053336195634483,1.8813870459143853,1.7191688574463508,1.8066212323482935,1.9079088508893003,1.9738825826328745,2.206814624636017,2.5474721407313496,2.6969776118660698,2.7482481560205985,2.834711852638142,3.1215796336288912,3.291728891539036,3.14208262009121,2.9714554073767134,2.9022176822942245,2.929824563988732,2.9669118527412923,2.952163848830713,2.8588965720391797,2.7308855101889398,2.70603023942758,2.6583138164156956,2.5894878825158063,2.4930899538645046,2.112424721381526,1.7802106375631217,1.5669933563029654,1.1677941866343147,0.7899068500199633
1.4501877079632044,1.335498632409727,1.2553355840262155,1.2908591862036618,1.4497678489447676,1.5529040782946997,1.6857345484550168,1.9329846114136078,2.1500659094296646,2.252283510677136,2.290878895300342,2.3307174265917197,2.394195306317307,2.449995995553628,2.445215894918612,2.3475465637539914,2.194400988239895,2.1069941837166315,2.1289536171644645,2.173219364161701,2.004840406786914,1.8581399407386143,1.8980287233191326,1.8586949129826804,1.8271114539470616,2.0852284335880436,2.4007200119831307,2.542777912814766,2.597739399766276,2.528418822798864,2.1553009586430947,1.7002112852003546,1.36579530846873,1.128818140149434,1.0557019595557549,0.9946742705221245,0.8984506292285682,0.7466230212711623,0.5597290621792897,0.33053488720097157,0.32974902841521253,0.40125584153679966,0.47764992120413663,0.688300599163907,0.8003271046939111,0.9767498233364988,1.12864580528164,1.0851592859722143,1.080220665256797,1.0353422784879889,1.2013792241659607,1.3756829386196838,1.5496885852206237,1.939201300277261,2.2520554009077087,2.4633434747380587,2.6386725042923467,2.7193046660162787,2.8096602276986413,2.8687895807473587,2.8882731464184004,2.8561556445416154,2.696875787673128,2.4872985002740484,2.3570073722336624,2.363766892445728,2.4212567433661207,2.601486043786024,2.8680959679019495,2.9766192643857803,3.066276718811902,3.223856214808671,3.2452499050832007,3.0630564366115296,2.7701769022207032,2.7016274114263985,2.605515614651573,2.499517366587651,2.628207968619876,2.6014058811797134,2.4824242012087314,2.5062708082932637,2.678245423271455,2.7722774866930444,2.5918761092813782,2.36772359491271,2.0187850716007536,1.3805934876871195,0.9177643651132632,0.7080777014374673,0.8059065841866144,0.8852064846538342,0.7633000115749499,0.7212435990564094,0.7443296192062532,1.0305767294290265,1.3208484371938873,1.472062410715029,1.7188722631708893,1.9609107965915862,1.8738328392674168,1.7058352667281786,1.745139221006611,1.8881137882408972,2.0979189367432305,2.456666695892617,2.8613493414914504,3.0272516022022025,3.0969091494636953,3.2184979929508484,3.5201674160666934,3.62619425153066,3.3083305083628094,2.99857866099418,2.8005191854978184,2.7528245714302977,2.7504934457859482,2.733860810159549,2.6905776445205434,2.71294699033989,2.7751603933655717,2.735808510984745,2.6534602947906167,2.5814126051130333,2.218874178821408,1.8901561664090238,1.6895180503275284,1.3160331917397445,0.9116507875202442
1.6357599234564997,1.5204885454045645,1.412307929326937,1.342380164824044,1.2533175198838997,1.1997744984624326,1.2634793827744557,1.4781492428796559,1.7365666480971365,1.9247189624001257,2.027691501872217,2.1162404393382372,2.2181122104079796,2.3142835028671764,2.3727867329118264,2.3648917476943856,2.2919500386556173,2.224803872384373,2.2122769363119144,2.3139899662646575,2.185451879485247,1.9828388658671086,1.931623929685532,1.9228457607929592,1.9702960980482984,2.2509184623250116,2.505766771170314,2.5297801503682504,2.5316917117096276,2.454152515105457,2.0971836769187617,1.7265847642567316,1.5348160271869122,1.2768056792848848,1.0231984540995032,0.8509743993201504,0.7882450968740783,0.7571501839798126,0.5885503189447595,0.2890632638426196,0.20971701936862663,0.19720870562957377,0.19451869022848037,0.4360162043403778,0.6616656890709117,0.9052350528973735,1.092883557256915,1.0660774911579836,1.0521936666678209,1.0711191149282002,1.3490578278158791,1.5795002333041295,1.7184985639620605,2.102386473208559,2.370534480493631,2.553495977465466,2.7872273706967214,3.013463560237962,3.1031865151760414,3.0732646435088586,2.963492416565868,2.808263571112963,2.5743050996164056,2.3511859681841396,2.2279324243964576,2.2141360014611995,2.202496140516797,2.3259796176258414,2.682819996709502,2.9512989326216346,3.0653048208892555,3.1590626515712423,3.114546101713822,2.909276780775828,2.5888513707916196,2.5192954635259035,2.3921784578762817,2.1696907911658743,2.2483987187834615,2.3514532382708957,2.373379700426151,2.416472295678005,2.4776623729325067,2.519865185357976,2.3878329151934885,2.282421371940273,2.089408788253054,1.6210398622558864,1.2198186866255838,0.9243578868400187,0.9929479746895412,1.1606596409938306,1.1630227432660647,1.1045349857832945,0.9784067136772215,1.1636516660670435,1.431997832662475,1.544737107543073,1.6593711449835782,1.7568178186148624,1.6669824665665567,1.6218944450039945,1.8012003281951412,1.9287131306694505,2.0199472359852297,2.377919792154866,2.8904561038630345,3.164444229629617,3.2343788831064897,3.271564312108687,3.532466923899236,3.705150440087551,3.5266412833149126,3.228717104320359,2.991857159077019,2.8879991347153964,2.841269050683913,2.816712621403431,2.8020934081507836,2.7628815156155357,2.7947201429841546,2.803201759333436,2.801728034653823,2.7598992898315133,2.4199224191011575,2.107198900446074,1.8842008694400914,1.4519696681791219,1.048826174092993
1.7497257856801145,1.6272913666862334,1.4750801128730757,1.3164397517228514,1.2121141612769961,1.1442073712316299,1.1582019350575319,1.3048018801078334,1.520941780949342,1.7131354792990752,1.8408325494515971,1.9615350154574578,2.111567099380191,2.269963528224495,2.396903704595491,2.456493587396729,2.4347053099548326,2.3567235244020353,2.2686616963394792,2.213772912009088,2.025262337286671,1.8848427136722115,1.973938509497169,2.0286252341422264,2.0600475482878395,2.3024157163505117,2.5443287055883137,2.5632167249847173,2.5342170548450005,2.4572135772762,2.1228273852261936,1.7348629532567275,1.4836778839547544,1.2294390098503487,1.0441031377397667,0.9023541355542305,0.8018616144380517,0.7412181606911019,0.6515523805531117,0.43866613843831603,0.35555976671207984,0.3051360137655699,0.24456889132389356,0.3793074967583141,0.495625796238296,0.6992634250077713,0.8537773644229659,0.7743336428091305,0.7944567410378685,0.9004966176611336,1.2752633595809382,1.6416608454222548,1.9289924153041174,2.3166390162162025,2.5462600497052366,2.7078178360767535,2.8894813324646105,3.0262679893398468,3.074886831103651,2.9625605999463764,2.752875999278831,2.5127002103457947,2.25333251353315,2.059695483036067,1.9638646421973749,1.92915283865929,1.9320864119280043,2.128334162097779,2.4695213003023118,2.6199948380586413,2.6477005967914473,2.712391967441604,2.7005392482530555,2.600918790195966,2.4328532074583937,2.431636400984851,2.328594517422952,2.092497056345102,2.0970328746995834,2.0940626033115852,2.121716473702944,2.257015535852026,2.3684424059303235,2.321132653419845,2.103412083024588,2.051203551645533,1.9622375572604518,1.6034979189035878,1.3477197459287453,1.2328168174664298,1.389621285470756,1.5419810758779593,1.4838407142488221,1.4469722885679945,1.4114017529528464,1.6152100588156284,1.7682794688019,1.646095189558408,1.624210134925897,1.7645701983869782,1.7548426355726134,1.695183181502066,1.742960039603864,1.7779174841643854,1.8935402758706208,2.308417523103666,2.83250111826099,3.078688881630702,3.138125180835567,3.199242758085832,3.4768035720693145,3.6281539620110292,3.4589385100497605,3.275753692434794,3.1045177449286285,2.9921640315543008,2.9237551937153694,2.897434302949667,2.916993315779589,3.0020929218702674,3.091293567326606,3.0788765417026434,3.039728307707701,3.009031408048075,2.688951920340178,2.3970696662413675,2.21618090313049,1.844710258964268,1.4475808760019313
1.9248670078047285,1.782533538804043,1.6051803758108452,1.4134705081550347,1.252646305413783,1.1632329490710311,1.1632233708184387,1.241744633028777,1.3642051343412553,1.4889219404095646,1.5952333236543863,1.7138235109703779,1.874404135985252,2.053478478734769,2.2049396264319396,2.2886229220994085,2.2875588519152785,2.21392104336937,2.118944895797085,2.0898977764676037,1.9248670078047285,1.7800763578296652,1.8518518915906848,1.916312904690382,1.9591701103554688,2.186256213246679,2.3902675228052668,2.365106668946782,2.3200476215983112,2.245943481089177,1.9248670078047285,1.5690745263940906,1.3723060151499957,1.13986997006354,0.9429380022550153,0.8110657257482512,0.7716451009853591,0.8388112710687481,0.8621288638947253,0.6992206912654367,0.6063322712033593,0.5085540795140849,0.32781584232663713,0.32560783406753097,0.35190780003526273,0.5155543085816796,0.6572698605620091,0.6081987042392536,0.6789046280863985,0.8449064289452436,1.265599639504044,1.6459464871869136,1.8994240053334657,2.255658665854038,2.4555407354609677,2.606667878438418,2.7990235781949755,2.958294077847469,2.9854752430536853,2.8353345864143686,2.584134376105413,2.3182717398888464,2.088966899253655,1.95945208398094,1.9042767326082695,1.8566225383061952,1.8027127342794536,1.8854151846469747,2.1274366245707377,2.237796735186293,2.2545006919550707,2.3238299261892488,2.382577770069331,2.3956848719531303,2.3023739404334367,2.3227451522437463,2.210852171238821,1.9205294149564636,1.8737184113834437,1.8743552224280238,1.9248670078047285,2.047633230362206,2.094704861987327,2.0053340736094607,1.8043217794065065,1.8225002989519992,1.8337979768225443,1.6130233069093904,1.4784637042801454,1.4155903596508594,1.5952333236543863,1.797313574601657,1.8212407863656963,1.8327188945694477,1.785497768525022,1.9589892425539954,2.095875582330128,1.9531101709769663,1.877853402891586,1.9555226519042708,1.9248670078047285,1.8666410083085447,1.8677586476332544,1.7815423554381966,1.7671063538959506,2.1296004255101875,2.6473308762413876,2.896316152477824,2.9416365387643304,2.9759395031671967,3.243401744406098,3.433753747399228,3.390149415582918,3.337314742780079,3.258813005469256,3.1751571367596902,3.116569176019032,3.0996027014503613,3.124564880246423,3.1784507294318263,3.243401744406098,3.2309062507897455,3.2063034038236236,3.1835132043211476,2.878053003544764,2.606667878438418,2.4402075739958695,2.0741096387945164,1.6978673762727379
2.0185961589880885,1.8546432891115234,1.664167252352253,1.467484374370276,1.2803533903661788,1.1862093350681269,1.1869111262676726,1.2220001704928962,1.2715139894431446,1.3335545786884027,1.4107303174461314,1.5158320779068541,1.6704912567868366,1.85129569443547,2.011476966181327,2.1094652255276936,2.126293515383005,2.0718423190482045,1.9983570211501815,2.019398107396231,1.8855669262716954,1.7349875442192926,1.7751593894910211,1.8281604475932172,1.8676142831050013,2.077438017101307,2.2479732970106348,2.1883966395658607,2.1361305834121023,2.068739959873016,1.7616227674474687,1.4370564394113265,1.2938870192057963,1.090484426019161,0.8965429360276614,0.7875119184775765,0.8131277024947591,0.9904974892821196,1.097844502668759,0.9663427571795818,0.8654420551452421,0.734235025120441,0.4662831878163448,0.3643590863319588,0.3205444750318164,0.44176713455448197,0.5623268316400334,0.5305800818174337,0.628376251150035,0.8254387779092782,1.2682147234983197,1.6423796748595847,1.850091104838911,2.1764702046717854,2.3539703293732663,2.4959225378714898,2.696358930427478,2.8754976731108903,2.887545567615722,2.716016451901368,2.4416985763695815,2.1631794213748137,1.9585978212754063,1.8730806286988173,1.841846370649051,1.7806992758030573,1.6755797403158892,1.654983642186544,1.8114873254298995,1.8946305872434033,1.910116813099115,1.9872256180606942,2.0952220139484408,2.178520669095466,2.1219030654313276,2.1502158827615987,2.0296370107511463,1.7021754716718391,1.6251305497408604,1.6359544540827045,1.6974699708887433,1.7993592959483329,1.8043294143790054,1.7158744727264046,1.5637433815195574,1.6548928329840833,1.7548831036898156,1.645673009655689,1.602081553221229,1.57238653878275,1.7702972198090348,2.0190356257947646,2.1152883057714202,2.1620240078164437,2.0939611475129736,2.235465020111015,2.3649925772226355,2.231681076165307,2.1356205046221333,2.1639531968265335,2.105049908958709,2.0423023709932786,2.0133799807742365,1.837156093761662,1.7130692235787401,2.0175169846364094,2.5146436746361904,2.7557507275972224,2.7834095528923264,2.7912068399333263,3.046536750686853,3.2640237222371584,3.3076766821050905,3.3382212875485,3.325694112019727,3.272210033691135,3.2306197873583717,3.2244167636219148,3.2482168056630756,3.261056821657284,3.2954557159438047,3.278288245428429,3.263495886840461,3.24423092636512,2.950094135803265,2.697593788223214,2.545871835759787,2.1871809198555923,1.8350165239592988
1.8406494482594953,1.6616085142708228,1.4647725500248188,1.2805387663932715,1.1965416171759584,1.1610574331918724,1.1731913109334353,1.226633539666086,1.2925716304094195,1.3547030656965715,1.4139084184956647,1.5019402592597204,1.6489757016677875,1.8338861980548338,2.0105795944317344,2.1359847176769526,2.1874895053665107,2.169835349101151,2.121311055742262,2.0763765809366395,1.915415856437061,1.828025965242879,1.966843271531746,2.0167831799695457,1.9912023105250334,2.152983610946705,2.3241102742747364,2.296624225920623,2.2481374903637255,2.194551864137939,1.909930730215401,1.560987460372743,1.3520403851547989,1.1818020126561135,1.1177564372672715,1.0927131380396398,1.0980832958737698,1.1838570635892085,1.2672051756750993,1.1588354996270744,1.0665748971829843,0.9500802104975733,0.7282288713141871,0.625181977589394,0.5185857518482527,0.5816790278928293,0.6410391431501532,0.5268455948105911,0.5931746992962857,0.7806187448024164,1.2302841064444472,1.6622133440825888,1.9758722251525944,2.3225217947611823,2.502522359141296,2.635459221584253,2.7753910818953123,2.8473001079469067,2.835257149926104,2.6474762446441913,2.356249327219854,2.056442745295181,1.8157218709009224,1.6857687354488844,1.6167986672671986,1.531164097349528,1.4553569066900631,1.5247446051044866,1.689012815923005,1.6838335600309244,1.6466878070981188,1.713609031791178,1.7978862988475226,1.8542969247620154,1.8209755608674743,1.8650945073289473,1.7663564135574124,1.4905702840018205,1.4180536283415484,1.3404547150164086,1.3507874391974368,1.4988971378928713,1.6204933861060669,1.589318457963223,1.4638571637924664,1.6137126463805662,1.7743755845036546,1.6898795741037353,1.7021124394018956,1.8003611995891962,2.071952321595283,2.2923144911667515,2.29256595713673,2.3142641990042594,2.30363488054777,2.4573717289622707,2.5071637961503233,2.2546795474025143,2.1417422605692886,2.2558136125094337,2.243846875275605,2.1392435523440083,2.0351580352734624,1.8780164864567561,1.8494444852952825,2.181213244837156,2.6266835528803907,2.7938401962863937,2.7988042362106134,2.8381159636094186,3.109185374774552,3.2709318527221356,3.206134384504804,3.2138075963353017,3.201558190131703,3.1645560741483476,3.1384012555468215,3.1376011030610402,3.1634943616879325,3.2516845751746577,3.309475920015107,3.244959315635326,3.165285789638143,3.1317739888993947,2.8376903207999935,2.5945432842339824,2.4825754639208224,2.1898348694517327,1.8529945402855041
1.7385174434347084,1.5536001962215562,1.3586136083539455,1.1723545400512054,0.981594282461048,0.8918264570935176,0.9119172103000402,1.0058677848957294,1.1261082314544952,1.2153674516093784,1.2595796340709644,1.3261859184509048,1.4622219350383752,1.651318910646176,1.8501242971680865,2.0146727409488645,2.117457945761008,2.155196610948989,2.167989251432299,2.278915842009818,2.2048852514287622,2.080594990735988,2.1148342781788325,2.158240671721381,2.1786803680377247,2.3521623973570507,2.4775255512781698,2.3847854836129727,2.3384134788707063,2.307331386099141,2.054464578258855,1.7966001697708434,1.7370422451777734,1.599869750500519,1.4496508100659773,1.3901551256950404,1.458800288496968,1.61187992142591,1.619310398232061,1.3880899439178576,1.2429871534265866,1.0974489208367002,0.8566825221130538,0.8097588837003413,0.7897720176950112,0.8650746186400311,0.9201139841530022,0.8146854947605853,0.8340039460927102,0.9894401975536701,1.4345765929757663,1.8134446413471208,2.0314774351473095,2.3929907673749686,2.582672882117572,2.7023043728480705,2.884006697998359,3.0587359815826414,3.0468352974522657,2.8505742493983934,2.5515155632237243,2.232161683408838,1.930799139102052,1.7178281231200376,1.5853553085954575,1.4734417527671755,1.3297867151552196,1.3127036069415217,1.5302143030867097,1.6771216916255054,1.697959806410253,1.742822812715764,1.76285224668598,1.7267251040769243,1.5699967279215568,1.5621835999243465,1.4291565177098575,1.1111092036471333,1.0708622704009965,1.1250228680780638,1.1873142970229391,1.2718943934287883,1.3120217827146876,1.348972323491777,1.370813723396127,1.6372686455975072,1.9104932925339069,1.94061492257309,1.9754245892016402,1.9731947950228157,2.204564048412025,2.493999224750971,2.580361134015005,2.538258635365723,2.343308481697396,2.3876427132006666,2.459124586026081,2.2993163411694,2.1785686524570096,2.18247201142494,2.1264197272806244,2.1106217258493385,2.1944379381912413,2.1243698522878725,2.0321535492620213,2.301922325823713,2.752120717222501,2.948170454288416,2.9257269138509123,2.886970725102456,3.117114104912664,3.319449680760525,3.3207781107162004,3.277989846020748,3.2336478413971044,3.2058905074580326,3.1912051305836333,3.18680723906648,3.1826498353682577,3.1224343821544482,3.083143874269078,3.010506532626144,2.9559861610459395,2.903220451661764,2.595786320383855,2.351008659992884,2.2174071220791762,1.8801150355504213,1.5638594994125217
1.5539264462406206,1.3719187590298054,1.1849965072533528,1.0172012154360466,0.9236008364909025,0.8740048656049592,0.87764563309413,0.9588258919029358,1.0684892214818398,1.1405131865645408,1.1586137262401313,1.2011010127675896,1.322123007898448,1.5115511884290582,1.730895935748492,1.9368197633224837,2.097149066271414,2.19937893505009,2.2637886498148854,2.3291742964202458,2.2413784859037227,2.1921552748210655,2.3384722746058495,2.3944604765563793,2.367609650546296,2.51226163689537,2.6579870506445684,2.6167349166283107,2.5924716555560163,2.5922662388773463,2.378295149138182,2.1113325058705477,1.9933784112301918,1.8836770771711706,1.843566422197733,1.8370551168756801,1.8491610104629148,1.8765897090296324,1.835300187593761,1.615862835149505,1.479181225917602,1.3519035266610293,1.1666541535392416,1.1356362350600442,1.0758443616474094,1.1180841608636578,1.1342400205475622,0.961322279243934,0.9536153961716314,1.0928765577646362,1.5307622528138511,1.9510944046942869,2.2556498980689725,2.6157795964505355,2.787480310244022,2.882662427086473,2.996391872248509,3.0655263732396,3.039394468765429,2.8424470283950245,2.5445677198299226,2.2234097577195744,1.9088986067271163,1.6757508226429596,1.526333158296907,1.4030716571916872,1.2924344403607524,1.3608702078252408,1.5772632692506483,1.6270321460155979,1.5887408156530456,1.6173495273095506,1.6081487499680418,1.5406546352516681,1.4034901899905345,1.4077295245878534,1.2917906344288226,1.0187475874776284,0.9738386239793911,0.9278392132629621,0.9254598279613212,1.0417085745917105,1.1812646726856897,1.2562648218853936,1.2857206747245313,1.5941935674960672,1.9149411774641694,1.959908844598967,2.0424651276084806,2.1599638914613046,2.4556931401954833,2.7056616240605114,2.6787946255393202,2.5897052351707837,2.4312595704242126,2.474262461656597,2.4642326312940814,2.196439037774639,2.0807677124178285,2.198631039300086,2.2194805006302123,2.192665095735003,2.2346083559349394,2.2164797814508,2.2471912695259126,2.5620864174999687,2.9672882043893005,3.0865700889001833,3.033397893211767,3.0179482454593742,3.2582639505591233,3.4016138471471504,3.2964624639701134,3.2364323131045305,3.196735908345848,3.1836103130666595,3.1734352616590726,3.1546260049705235,3.126824905784992,3.1145975295623556,3.072688327418271,2.9270224830323097,2.7814256757438782,2.6893257669067396,2.3602228284683053,2.108000950162657,2.0024077977143784,1.7229263138396982,1.414897483594111
1.6518891298105944,1.4791605589956627,1.3031618622274461,1.1392615299873354,1.0073149851835483,0.9197121396173252,0.8754203103014917,0.8600238586904185,0.8517615843254991,0.8335599572456276,0.8110657257482512,0.8300610952525539,0.9330386571643524,1.116069928022379,1.347130388678859,1.5856289150646978,1.796550722041836,1.9591990799646313,2.085815746249396,2.2331672525732897,2.1978448857988626,2.1621146880808886,2.2998110947552215,2.3725467976843913,2.3753989802697575,2.539208061234211,2.6889483837546058,2.6495582620422766,2.651451735222027,2.687930804934981,2.5158898789773048,2.30602465456953,2.2535142056169377,2.161612603447891,2.0886102014431773,2.0496968464634846,2.0627729848038077,2.140721605657004,2.1404717606220793,1.9330168827569572,1.7883780688076616,1.634355420071582,1.379067008939383,1.2790531794162172,1.1903380040085725,1.2348021681922,1.2691412352394522,1.1392618247027997,1.1650731524305957,1.3217401725102236,1.7542558386633238,2.137252454666683,2.3600293846053755,2.6510932138596135,2.7637855553025097,2.822275744187861,2.9305676890321566,3.0219206415248343,2.9973397508608084,2.805696378381648,2.5158898789773048,2.21566579575791,1.9654429632372667,1.8182095641357214,1.7291742816844728,1.6164264416356915,1.4631355898173743,1.4233903359704718,1.542071811401554,1.5524566265409105,1.5044553241932734,1.5330677750522328,1.5671131949786674,1.566761820466265,1.4655312949878552,1.4773974605694655,1.3505296368449737,1.0339150451728811,0.9466276188324065,0.8927929764589392,0.8793101860369266,0.9500456551093752,1.0159692311160882,1.0534884990605575,1.0905183919764305,1.432541619533682,1.8080036136536664,1.937225576155839,2.0889132057799893,2.220518488495745,2.5158898789773048,2.7917942078538283,2.807731904415228,2.7184424022463802,2.5071661907134715,2.4996360264014954,2.4837027874114943,2.2479602926907694,2.1509420800855383,2.2680530352266763,2.311156461271846,2.331535888275725,2.399093698371837,2.3456829673544415,2.3121816658541117,2.5982631091464725,2.993344809062324,3.099277482935422,3.0141257122075493,2.957420393853326,3.1751571367596902,3.3389219735650544,3.3224547469930363,3.352658808717359,3.383215202779344,3.394089761341627,3.379982910923798,3.336955042555808,3.264147944805393,3.165329554884603,3.050256943993673,2.8581286908967476,2.68030216881847,2.5523507131709002,2.2014979576586713,1.9436608955423034,1.8366674002625767,1.5539943781551593,1.2604147840181403
1.8720838042947854,1.7202545523776795,1.531334074493607,1.398693253734616,1.1653433328325626,0.940939831406545,0.7903579857170571,0.6559866694301153,0.5359972467681318,0.5086170012657293,0.49114479496018876,0.45151617475831307,0.45762238446472264,0.6199526937472356,0.8497136802424152,1.1039145360519165,1.3475888185836962,1.554790220427274,1.7332057682005404,2.0262268765325664,2.157646028012852,2.1316690517743604,2.098146107107115,2.182860888480184,2.289918491280806,2.4781001727548375,2.596956709171759,2.5547725374994115,2.585465974252331,2.6361982206111767,2.532574384525434,2.445191175659037,2.506626014106703,2.4156555654473526,2.2320148598484293,2.1524596252707604,2.198640507034379,2.3687485416189444,2.44062312280064,2.1877506232679482,1.947820336921666,1.7210990042817,1.3861138398897823,1.2369691373228917,1.1959314824858336,1.2490912264458796,1.3069251208314985,1.293309966326548,1.369647755340189,1.5821139910788156,2.024443166443579,2.3250166716854253,2.3435753097109555,2.510363153552725,2.5767933086032677,2.6657318783329096,2.8170860995756613,2.9473904898119443,2.925467343205663,2.7422701475411926,2.464137180323057,2.1885957567014795,2.0067294316051245,1.9499445930322044,1.9262917950390435,1.829419711513347,1.6190997687736146,1.398068088555808,1.389777079433112,1.467625285201681,1.4454685397504483,1.5097774065672773,1.6966653976709962,1.7508549511424387,1.670680777250147,1.6315618490241934,1.4347006313468356,1.097729195243322,0.9866563152771729,0.9844094045767691,1.0290648390967767,1.0611515432075342,0.9407804640191836,0.879257284611071,0.9928960310889449,1.3600230850623245,1.740671389825818,1.9806234713016764,2.1798062179510747,2.253483813084674,2.4705929225702166,2.737204504460629,2.817605903975955,2.7299527357441895,2.3975759874091658,2.313834835412097,2.367322339807962,2.334831101882915,2.3015699566466186,2.2435753686540485,2.240429575787297,2.378263872459525,2.527922521956855,2.4481759802033727,2.3757327455331634,2.6058484957685857,2.9635280771370573,3.1204337799033968,3.0535064767038844,2.941272196771495,3.0689753546403282,3.265008808676836,3.4380123858594636,3.5665851017059382,3.66113321190565,3.6885065315946397,3.6630963116138595,3.5899690055114,3.4566447395905207,3.1684782949059977,2.9703697492848176,2.7625680857191717,2.493345324814386,2.301251442908494,2.0232238733083054,1.7513430367908787,1.5740235726690603,1.3418734752619155,1.118502804180804
1.8383821837723329,1.7153531579093564,1.4883382564323677,1.4401494413705211,1.3303099087833534,1.0246236244063602,0.7768236937676447,0.6600247133652652,0.5345989692473991,0.497853255718051,0.4708362470254921,0.4215086882487292,0.4133819093185567,0.5579083100403738,0.7736065060796484,1.0239374531264265,1.2770881640574894,1.5058570277812795,1.6850778487215206,1.8200325082209037,2.0418995594224842,2.2007023732625877,2.193373904846544,2.3003848689249287,2.4368158410740963,2.5762292232044515,2.6952138134906445,2.7799630765730456,2.848931063326764,2.8866592108566103,2.872002200345657,2.822730269112795,2.7613154713167067,2.649561724948983,2.4900302179133513,2.474704829568626,2.4372160278352863,2.399215784252955,2.4779303798079235,2.277408593446132,1.9540744983961216,1.6968522104359778,1.4804275776164488,1.3936073489658767,1.3954527098460678,1.3991286958332316,1.3982467966455192,1.3898965865539163,1.4604648782791976,1.6526687995716016,2.0733053418725174,2.4397587223436243,2.5321541571126667,2.5996678704074214,2.5930515819110425,2.748880689086016,2.8881775112502104,2.8693394461250183,2.830337759394737,2.655612675505822,2.38917132863552,2.122771020893632,1.9396382643049546,1.8759257611376843,1.8499459758924224,1.7574104729940063,1.6360088843450313,1.5171477982581285,1.4552796912383965,1.4957853109833896,1.4097840597688855,1.4533386215111492,1.677731513180449,1.6851889011924408,1.7626790092520763,1.712730595510172,1.4693145574040518,1.3115115565669864,1.2324871045406591,1.0952302291420104,1.1331868548356139,1.2880009619512758,1.192923321740946,1.031876277269193,1.109263916445808,1.3932020783629264,1.6535981663687953,1.854990648125724,2.0448051776054856,2.237332816205932,2.4357279726162178,2.587026124241872,2.593770098213192,2.478874537637486,2.210122824143356,2.1628694728048727,2.136106472003173,2.0321871191953855,2.1004574315562015,2.1283448455333622,2.2272971836327113,2.4152459109518696,2.4806789330681287,2.4576567924951886,2.5593017984348103,2.7824056783417954,3.00312111044661,3.1332572918315997,3.13530696420747,3.096727383701041,3.1421073761902174,3.2241245532389855,3.3329144935392105,3.4431175944911194,3.5256361562236576,3.547669673771348,3.50719639904857,3.4041450109129454,3.228953466122789,2.9417142699680596,2.801867140353009,2.6230732147629165,2.2271994486168376,1.9449579336960936,1.7598528168867245,1.4309849692902803,1.1518656999311765,1.0873851981957814,0.9765684259681753
1.7867679921764832,1.6808962415157864,1.4685384610680503,1.4138480755043337,1.3187176812258807,1.0064196396027736,0.770195616652691,0.7454795252693829,0.6715576662749653,0.5098067675954158,0.41297254953853824,0.4452374091475112,0.580062366212994,0.7301699410414345,0.9468092372373283,1.1775563416763106,1.416389959545145,1.6471175206648958,1.8167029142128228,1.849662123455866,2.0324182774278974,2.2631405705087224,2.3906926498626295,2.5380844216868437,2.6950216590078715,2.8487165104686984,2.990186122394006,3.0980573609129047,3.1855539615542203,3.243094650892218,3.25926583578027,3.2246080339582948,3.149075260235597,3.02443574329782,2.7996228820917843,2.7352947482514716,2.640203698487513,2.4834201921205903,2.4592204422308694,2.277397394258486,1.9755824461722467,1.7295326741088708,1.5884719246312355,1.5957388343546575,1.6677489662302496,1.6948409800084923,1.6820377850276145,1.6310286719097038,1.658644008254096,1.731713844841002,2.0811285362448078,2.4914571565129946,2.6990065068017013,2.770918627365672,2.6839494937267236,2.7841413313903725,2.935007061750921,2.9658432144674642,2.9293774069504073,2.7371301624847404,2.474917319418441,2.2126328052351485,1.9928390174613755,1.873325684607446,1.7974359183588062,1.694945014567417,1.6175710980796119,1.593073022461076,1.5939228713420377,1.6497962079403272,1.575645944461018,1.553224728719941,1.6035818391320689,1.5640074097362053,1.7090848546975397,1.7333661486723104,1.5499607181125419,1.4760857188769603,1.4609563163160448,1.3404986644600339,1.3589315695005744,1.5210337690136604,1.4663633135832221,1.2861234034066014,1.2347491194086122,1.4136832558808814,1.601278453580804,1.7216226031435973,1.8409172433081722,1.989663057703888,2.1666440779543032,2.360403415369102,2.448455702018499,2.29425581877003,2.02787316632643,1.9972869046941026,1.887907105206716,1.6159934861988063,1.7118059994195578,1.9444981223125173,2.173678880829813,2.404950799831983,2.5311706547686104,2.5875183727462465,2.613349667446754,2.7709584876322286,2.953992853002631,3.030816112064966,3.016147681329768,2.975940092598125,3.009968308509327,3.0702605351016063,3.1280178403059207,3.1631958149225197,3.18762345354507,3.198214053757427,3.139519184982066,2.9898163281650803,2.7840190244726566,2.4892933187341115,2.338529117851041,2.2181721481655474,1.9461145399311088,1.6540984827090068,1.4027534750084603,1.0620339949867426,0.7861258716486155,0.7117452143550304,0.6350873643470767
1.7291165727126045,1.6735537004363188,1.5566127776984093,1.3551107308626698,1.2547218390716521,1.0928117203624734,0.8452685605720958,0.741083475723882,0.7439661613598113,0.5151375809150517,0.42894391734174314,0.4912836059439099,0.5820276762871863,0.8052670516289182,1.1376528993039041,1.2903874204240617,1.4837836499670325,1.739608277466947,1.8408184399487402,1.8725194398004246,1.940621661886873,2.0752092682413954,2.39997898678739,2.664949629811589,2.836877274512646,2.9674763065344387,3.117261020571655,3.1471373586995917,3.1624684571564394,3.231557719323749,3.2971942424681595,3.271178971639015,3.1990118485194934,3.078381861795688,2.933632214109606,2.897269704362813,2.8146572757548713,2.616193229604787,2.470083322692877,2.2595192910796333,1.9902605104191864,1.748375749396957,1.6299580443064914,1.671261293036102,1.7707920286540058,1.8089268006359664,1.710196852984064,1.553024248525299,1.6245033031340852,1.6690727359976447,1.9532211014172645,2.3883602348381237,2.673475748195991,2.7512420230654637,2.695888196152003,2.7212136117579093,2.801169917243161,2.8706691286214174,2.823127471879908,2.4928221311862524,2.2435882992950478,2.0227626251868402,1.7912189140575077,1.722133658178542,1.5919412045595724,1.4339877514779429,1.4588077300624436,1.5580145181258485,1.5020624556591373,1.4047436148605263,1.455597983939923,1.5684907318985946,1.629334757938769,1.65651187080735,1.700878336814537,1.7545829728287814,1.690277366301777,1.628292054625806,1.6670753203575517,1.6605260612096022,1.5651866399880405,1.6549916363435153,1.77321367799521,1.577818402667234,1.382791549299303,1.5265694832599037,1.68224078872342,1.7302850090105568,1.8449564661051796,1.8570128889387614,2.002203246762385,2.206462513334954,2.1751463428058075,1.9918042576511634,1.8081678898954814,1.831880383024006,1.7306978869564313,1.3851957643788175,1.4104689048292296,1.6609037206574837,2.022781008063931,2.3498752211563265,2.503696689748536,2.573749266250592,2.5635231553888023,2.7646042748625463,2.934586576462122,2.8490644957532605,2.7981139389141783,2.7472368399045917,2.7772889021281624,2.8786416976848552,3.0095520229158956,3.0164263348013356,2.9738020055829426,3.032625591337369,2.9747298435436647,2.6728257532393096,2.4383943739407283,2.1751205367829582,2.033742037985434,1.9412716856243617,1.6689332619041286,1.3008681654470726,0.9861770342532312,0.7583975671827846,0.6304080195614442,0.6414474714260463,0.6003567678054006
1.9248670078047285,1.853048229154241,1.7052096778958907,1.4180741847451885,1.2430263505833488,1.1291107189266933,0.8989414778344867,0.7537371578657384,0.7494513319039142,0.603676000722937,0.6063322712033593,0.6581050841880511,0.655782726328767,0.8932273133745635,1.114506241447265,1.1291107189266933,1.278595486300041,1.527017082371425,1.5962663013570246,1.8174792592149973,1.9248670078047285,1.906687828603138,2.129250598253973,2.4316596835065365,2.6067077387049746,2.720623296682764,2.950792243059506,3.0959968577437187,3.085008760048784,3.1560602377779103,3.243401744406098,3.2188435468328294,3.1471169496536837,3.018614891839793,2.798010935859379,2.720623296682764,2.664470275108781,2.5103918883105014,2.3866291498792442,2.1836850786960285,1.9248670078047285,1.671851313395783,1.5037378025558168,1.4739173130083796,1.519644443475158,1.5385775543376112,1.4704684052865176,1.434375597029062,1.5739893488357597,1.6597075442664468,1.9248670078047285,2.2528096146204803,2.337853187933494,2.3532500079388976,2.316482669662351,2.311156461271846,2.330089424776567,2.375815892133551,2.330722252557449,2.0878851461416623,1.9248670078047285,1.6961645839984385,1.436587473428638,1.4763749452658124,1.46023640011544,1.3338441366321523,1.3255455017468154,1.2810565814641803,1.127501204096869,1.0682333347798951,1.265599639504044,1.4348987906571955,1.4989696747365409,1.6722834031059914,1.8749634875169212,2.049767265039754,2.0693362153067403,2.008593074053965,2.0503706673234894,2.0812553375733556,1.9248670078047285,1.8911444371571953,1.9032643642659564,1.6419985340852803,1.4426419237316164,1.5952333236543863,1.6704000423506122,1.6019473840060716,1.7306101538466299,1.7632778342362556,1.9248670078047285,2.1289237035448303,2.059041426531892,1.8846406493819485,1.6142842101842907,1.5952333236543863,1.6243252213147361,1.4835220163135325,1.4811642925985231,1.57992690761768,1.9248670078047285,2.2421604028701454,2.2633191680801343,2.2458670392656046,2.2233829570320327,2.4592340728210966,2.6912525429339644,2.6737581592897297,2.6137959403386857,2.5556969862322934,2.584134376105413,2.6388777736132845,2.705945656089304,2.766030697710127,2.7481072083497606,2.845523563127647,2.8717222206544997,2.6562275256433767,2.4194751515445336,2.0972956687952244,1.9248670078047285,1.8123206794547144,1.472051395724548,1.0870211509184107,0.8830350211123107,0.7994770716157842,0.7105911822753994,0.6653269392848568,0.6415212976498725
2.0317150494904626,1.9118583846328578,1.7101379283109053,1.456951869943834,1.2343505904219094,1.084150695974253,0.9075129824004029,0.7888500003647104,0.7125956895063538,0.6370610738120038,0.7218538811042664,0.7960638981439778,0.7658816453640189,0.9399540818570729,1.021960428112525,1.0478988518843333,1.1824455238725788,1.315246927720222,1.3953794730531703,1.6953959660673457,1.8666455671883844,1.8396782134466436,1.9257461636778634,2.1733662614009757,2.3481797599292036,2.4820851679063995,2.7496137201247857,3.007714914068707,3.051777896826452,3.1472000594146374,3.1865546679135095,3.193786101262907,3.2246014028603462,3.0650333879465648,2.7405934375854906,2.549469722148891,2.427568738145531,2.370146892818543,2.3593579122592274,2.1817388882875877,1.9425730408992123,1.727049641062352,1.484564388071598,1.3410422671340756,1.3689648627697963,1.4049107185288277,1.403575989030101,1.4849545176675658,1.6128424621325625,1.7226985172054519,1.9599827974583444,2.132272223811639,2.00218372186287,1.9439128576933962,1.8400604594039394,1.84215940452151,1.897594706446083,1.990059344090104,1.9901652482502559,1.8034417774495957,1.6090470058640274,1.3544447844314789,1.1128751387096754,1.1986515588642934,1.373942864839141,1.358878668074719,1.2784333927946343,1.0921475790635018,0.9361579256393097,0.9881774891465505,1.207810283992979,1.3287670364879112,1.388100627353441,1.6815769053004797,2.1013989369465844,2.403789915617805,2.4937991866295257,2.453928420834232,2.44244416965502,2.4151970987030826,2.332816869041636,2.2315090175932606,1.9673765407448183,1.6723798303219921,1.5463344653599915,1.6089005322782324,1.5839348537360305,1.5138084878495814,1.5999096107670758,1.6382119377003928,1.8072016468258076,2.001825016303291,1.9556452443275931,1.8109379297550112,1.5387378058713657,1.4370876055716844,1.4961108978926592,1.5647611076969143,1.5852371645336758,1.592568469586064,1.8897363833719176,2.166574414586411,2.0374972011240744,1.9039729776680094,1.9006312980234243,2.086247799120171,2.2961445028234846,2.380362835996812,2.296783224913654,2.3345708681278707,2.3931173108274852,2.3131623684012563,2.261898418505243,2.4266792868740437,2.5050790894736257,2.5363605204174084,2.6224590277351565,2.6451855686973276,2.388903505957268,1.9557307693738764,1.7063864214859952,1.5874213745190335,1.3615928869833243,1.0637232303496806,0.9773107405440727,0.9180492076095828,0.7677414473019647,0.6713697851664254,0.7069075336861618
1.838033498538543,1.7039770120464208,1.5523639385273642,1.3913149415656596,1.2252259786082254,1.0726694656285511,0.932769581945377,0.8071632509267144,0.6954644689930966,0.616516606148074,0.7454852722209382,0.8819679300946707,0.8678706579294337,0.9603949570352744,1.0385716231888906,1.2532247581914875,1.4473462824922878,1.4738600276899914,1.583779207131407,1.738430483953001,1.8773998403968402,1.9923505726284634,2.123841040646199,2.2924086527576195,2.4666002279771475,2.640002702540808,2.8217093010653302,2.988311732040574,3.1128773490756583,3.2579808763555897,3.2049636273225697,3.198192834243992,3.2780645563909676,3.0818483050876804,2.9477017093423257,2.734330881325229,2.459130664532534,2.4774960797317322,2.5270187033064793,2.284125932507359,2.058450448346952,1.9435587467018576,1.6732540116484813,1.4671545877656391,1.506841414271729,1.5745895000395287,1.5471147613913605,1.5053988557524738,1.520274324101396,1.6422235125028983,1.8352276875895244,1.976434818554372,1.9734222831268102,1.9162341339239013,1.7567513602776454,1.8016959014583478,1.8619558336826325,1.8995638294015957,1.9645435975533607,1.7313198655242807,1.3951324646545902,1.1439811771127213,0.9778553747222399,0.9724483037761966,1.0883842836200166,1.0963715884566732,1.0446785696839611,0.9915636961533664,0.9728135299154248,1.022034106978619,1.1271745856834743,1.259607484682348,1.4677502445585764,1.7767713080938519,2.1214402332142415,2.410968263344182,2.578067363555766,2.576233422899819,2.5008409705775976,2.3983878916740893,2.4713521464458825,2.4919586517150636,2.2307620244093664,2.013322852023439,1.9153990967974892,1.7684416728256058,1.6516577781710593,1.6712106756550953,1.6490828491588048,1.6007271146258222,1.757845565118008,1.9030950755587823,1.7805663407089072,1.6306139519921772,1.5261103165664056,1.3537144058318886,1.2530071844999118,1.3234183928826804,1.3609851468563474,1.4167885622107137,1.7381624033987177,2.082105131195168,2.0166453176012253,1.8502813897204573,1.9490446010779365,2.0529762467440387,2.1295280912833996,2.2026843715999505,2.053685378200619,2.1329373413555865,2.172972908354616,2.0405785341928513,2.1101197885740732,2.361298061000649,2.513428157542804,2.3890402907721713,2.354750514886336,2.377039992814837,2.068376087582952,1.7299361948387513,1.4887167816069258,1.2760289566785215,1.1041352779347342,0.9137811382544873,0.849694671094963,0.6969663389995574,0.5242845174251624,0.5900538098862744,0.7362613412957593
1.6836693482581173,1.5535410689315157,1.4159938251215904,1.2713116672768505,1.1256886303120897,0.9888036121506176,0.8780459303736189,0.8198130280886679,0.7938270077693628,0.6971849441952584,0.801459180471446,1.002972573852564,1.1156459798268739,1.2233511461815965,1.2420681569297958,1.4503852410032025,1.7061396893831628,1.8178586869556652,1.9424650576135578,2.077918928270161,2.2015273739459595,2.3177758442806007,2.447152875468791,2.6087743572200464,2.8013234640001006,2.9884565846913147,3.1487969014794936,3.280313530099622,3.4129634870380086,3.5690595327448404,3.529350307863458,3.461547331340418,3.39978130638966,3.2057712950526924,3.1670605661646163,3.0056768829536797,2.7197947778335365,2.6777284923469393,2.6503503098527874,2.3498667480867255,2.119314726865444,2.0303452580613337,1.8315328766520735,1.7028699686636415,1.714658421461239,1.740888834579378,1.676173647235757,1.5491355148122887,1.4925449512920068,1.5665500305656777,1.7266018577536655,1.9323898485525381,2.112236379780073,2.089966960922866,1.939865255076603,1.9759372467519225,1.9523353939531607,1.847034366696622,1.91538285290998,1.8037428016668813,1.5202136127157344,1.262388125088737,1.057761946972878,0.9588555108071055,0.8684988439417516,0.8068322854602199,0.7962403590282731,0.8426083851117705,0.9374442112835795,1.0312238509099303,1.1393078739941085,1.294965604126547,1.5089446880226824,1.756471270068189,2.0255639233053104,2.303648953211194,2.4883490872256835,2.5053673580372187,2.4630777150680574,2.400105346042741,2.503250932608667,2.6156448378044495,2.528104435077241,2.360885459350522,2.21756409490339,2.0299067306602003,1.8539356450470523,1.7423501996292037,1.6561469025441533,1.6538548266988338,1.819257811783358,1.9495864055271528,1.8339904812799315,1.6258954653089321,1.4348451892821121,1.2201422842054688,1.0565822746478464,1.0119539539505613,1.0362640747816914,1.1865341851887354,1.5603288081492952,1.9514706389166023,2.0105832507454644,1.9237176162704772,2.005641360530364,2.077291027763449,2.177868224316487,2.31306920147508,2.1566855503144504,2.098588530278293,2.068267945427243,2.0025338069951157,2.1800423771366226,2.374450291189931,2.470909078584626,2.331557660380656,2.2188922485633173,2.0784405009632407,1.7630435722815097,1.572546421922174,1.4113554457855062,1.1269664428867585,0.8114180580859129,0.6072998220729062,0.5303919059934294,0.37873324367597716,0.21665005331034357,0.2881654131803976,0.43675476129410445
1.4737801597991456,1.3481250902105617,1.2168406605369289,1.0812967450961004,0.9481356041847533,0.8269808765766264,0.7393315396458979,0.7221567749227791,0.7571574045086898,0.7027094592538556,0.6730396429875808,0.8310626120793702,1.1556936854190925,1.3167392563135236,1.3220431031681692,1.5406776230578896,1.8512029373479866,2.0336902785820032,2.186215874067493,2.372469066480662,2.437133581184127,2.445655647230894,2.5246754943280902,2.6929949007593565,2.9773520743879516,3.2120970677800624,3.3272064444251734,3.3698215637853046,3.4858075715792025,3.6041688386582402,3.711491980092265,3.7526140709098668,3.657182551105688,3.516396826415465,3.352086766001005,3.253103777493361,3.1018406233291014,2.908333986005289,2.758660158661544,2.442921203473546,2.251399732678338,2.139755915178826,2.0573661717337957,2.1197567448028587,2.146874122530754,2.0891672873497145,1.9606265688533056,1.7121061118608754,1.6114668040237208,1.6520296906673855,1.7854190058171675,1.9695186110236993,2.1371330764838943,2.117744464451531,2.0065541956319777,1.9745705544400984,1.9319300797645562,1.9603530775072937,2.03684239862138,1.8345559757870615,1.5077881140221714,1.2497995013856416,1.0305241963975014,0.9055791332020326,0.8045161166256877,0.8309579144106505,0.8811792715120002,0.9658314258488893,1.1718852056741864,1.2125999260411542,1.2580051167025348,1.4739954126064392,1.7711352892812795,1.9850163894953683,2.131191446944622,2.4213641303134525,2.622276893578172,2.539043794202254,2.4936002168516387,2.5281973072879524,2.679997285670573,2.7486193501479805,2.5841753415549613,2.423278344094009,2.3048434718277435,2.2950905634834426,2.194471738371062,1.891583238551612,1.7877264252863512,1.9494472606860695,2.0281980717061883,1.97515140638588,1.8262533161936643,1.5778925236065244,1.349049096870247,1.2653255541221742,1.2061971588987161,1.0026327669221382,0.9186951502286292,1.1104471990352784,1.5465213518038392,1.8562873086753255,1.8462521365950182,1.853740948643399,1.9184618731531011,2.0219428096536705,2.1498034653086373,2.2470407067630496,2.1622162175583663,2.151159837974279,2.183299922423522,2.144548706998527,2.2086777605426535,2.3419993556046372,2.3261119080299135,2.2968730394514227,2.3228802424447297,2.138410686441681,1.7939324882760346,1.4683145509939906,1.3204507186747116,1.1577742292398558,0.8384922415785608,0.5224363567480594,0.33508735697919007,0.3144404756913896,0.2593569765376282,0.17286373469478125,0.22279133415701394
1.1291107189266933,1.00981093045135,0.886630623456566,0.7619143331403193,0.6425996615340249,0.538087810914684,0.4584368306505262,0.41287102006106063,0.42388542111119076,0.5400217337919204,0.538087810914684,0.5801864414234963,0.8249260466801298,1.0236808296358209,1.164948635146897,1.4754131781872537,1.7777154751332722,1.8963214780783637,2.0637123258774985,2.279116359043893,2.311156461271846,2.342301365276757,2.551986150141467,2.720705817012789,2.8898481058600267,3.0669257559433243,3.2413741020111897,3.4016711693049717,3.521591628548291,3.5477893282498845,3.6979356581618905,3.8040498767610447,3.7016439154924035,3.6032761455166447,3.4272912266963877,3.391620193107887,3.3724278799945155,3.2492197223883474,3.1344393218803464,2.8750360013359453,2.720623296682764,2.5067860077644264,2.2675024698997888,2.3340077773937473,2.348504573210379,2.251960613046479,2.1736161616950502,2.045605772164463,1.9702194536078441,2.0135083385688306,2.1296004255101875,2.2456923466740957,2.288981443461822,2.21359508806577,2.0855848182633405,2.0072402195541796,1.910696208736059,1.9251927027859288,2.006972516604085,1.8424128966603064,1.5385775543376112,1.2976625453410533,1.1343147309177815,1.0840165267590958,1.0410632950824588,1.131094964469472,1.1649935792552142,1.136878681778988,1.3304610978165783,1.451310905437375,1.5385775543376112,1.7208013969218297,1.9562155624979876,2.2165122001518816,2.4191162617877895,2.7443564383135115,2.962057962721883,2.8564499916116612,2.745455284922438,2.6331642722631563,2.720623296682764,2.802743845180662,2.6573421395296473,2.468406723255474,2.232718014106998,2.26862942499613,2.336171725690929,2.1818313000053857,2.11957728150477,2.1953038859044445,2.1296004255101875,2.043580625641144,2.0174325578657237,1.7763320070646245,1.4207630212844244,1.3313040945629933,1.3692832291501886,1.1907978338118652,1.0428846366523035,1.132222472157309,1.5385775543376112,1.8555706021103249,1.8749266665035909,1.8686768336625181,1.9144427249690235,2.051751529002249,2.183803112239511,2.2304671800069746,2.1755140003476168,2.1083205138246237,2.1296004255101875,2.1169448645572455,2.1830182849578774,2.3687761343542966,2.3560633249223994,2.398053979052951,2.496783070188035,2.2921895318098557,1.944013154201099,1.63458940573058,1.5385775543376112,1.4399646916137905,1.1149290107809127,0.7314894558543127,0.4708297632852758,0.4955608114784011,0.5139999792225598,0.40911266110160366,0.3970280008425915
0.856537669462313,0.7540589871528371,0.6171906204151023,0.5441760429777668,0.4636331063606744,0.3276297295108836,0.2070672326284206,0.11632493057793039,0.09144048298559733,0.34309168163391435,0.4705758659127157,0.4578857127321428,0.5072268284202669,0.7213426971313059,0.9777135429050089,1.3264217276618389,1.6072899122654167,1.7210707300168364,1.8977944843890324,2.1080076917789046,2.211126164522108,2.3288222956374818,2.5569421590692825,2.7061011184967625,2.7584544472674093,2.876651484153923,3.1097397345630435,3.3876652589336915,3.5267487071016776,3.5334035296450232,3.6428860512865326,3.711262249387784,3.5978583911350177,3.5305657144385454,3.472588256782342,3.506858802484127,3.526463127816697,3.524720033202644,3.5373770308934747,3.3215006056771186,3.1177503956002517,2.8347929730697112,2.4636041874057324,2.419152401271609,2.3833022911990667,2.290047502975337,2.264295855129077,2.2593087168803367,2.2105712705618377,2.2747575173257695,2.4247602471277583,2.5240525763546984,2.461187373240116,2.325138610208811,2.1745978589068873,2.1293566037225657,1.9984535404647648,1.8358512134135618,1.8721664996121177,1.8254639852913406,1.606203554224293,1.3841483824578578,1.278198946642723,1.3058649924667043,1.290145606385541,1.3459804457762963,1.3445223410162954,1.2479378574760436,1.3611316572815755,1.5810558152039729,1.7165542523647048,1.890968782135498,2.1612426066020833,2.4463723952402567,2.732382001638176,3.002889390412744,3.1284862168576804,3.069558891259793,2.9456082717199954,2.686058330232067,2.6891528426080167,2.844615397424172,2.7968166751188606,2.5630634729432415,2.282512291661033,2.300415519333224,2.433231180041456,2.462709910168516,2.445855537994607,2.407770821592299,2.307547633571127,2.2586291030194854,2.2489808186650375,2.006815626668596,1.5360716992623198,1.3665586952003304,1.4067519165530846,1.3420906068802947,1.2638745962121842,1.2362865026285303,1.5046869337088402,1.8401577707663332,1.95138447378517,1.908385383921783,1.9970452426182435,2.1783201704811077,2.324508655903707,2.3818966089522915,2.322058723087781,2.1425735055365616,2.1035282745964183,2.14756690648892,2.3172987736226416,2.5429251968680884,2.6049454875857374,2.6533821215136912,2.6806514803226222,2.450437774034728,2.1591152951210666,1.970066183146652,1.919107403055374,1.7382890573695333,1.2768375085550374,0.9204862834633754,0.7234781317073096,0.661850033593879,0.6418745141339274,0.6549429346130272,0.6267077195484694
0.6744665079083579,0.5987921234050275,0.42692732677674927,0.44483025973347556,0.4266984802186612,0.21199531726598653,0.05726262529735869,0.05081793488011307,0.061264713945854726,0.20541977318255789,0.3557277545267743,0.4547406566540526,0.5613426293467492,0.7939861541201259,1.0682850573438931,1.3563799966888717,1.622179324339747,1.84161255997736,2.017996293289926,2.131552307611034,2.338514308398956,2.511949754255194,2.544690468820835,2.666747394144284,2.8062726207933695,2.9684796653329073,3.154219666024015,3.342992878274482,3.495920438023806,3.6090121925997978,3.7032381787969464,3.7598988477583166,3.7632731924676914,3.7304383531506153,3.650596102550077,3.6851573850574693,3.6593243957430412,3.609922126596059,3.6921965165663613,3.515592547913182,3.2220173376686962,2.9832303953615322,2.7794631654665976,2.7087635043230707,2.6936687676686524,2.6410182920310485,2.558515350218123,2.439477232235712,2.3448324553636852,2.3364047351049515,2.5237775699870024,2.665414101383446,2.5511451795638695,2.396997792507493,2.199026971106759,2.20502275461261,2.2140498708667353,2.0989334026307627,2.052647519273102,1.9196218145080393,1.7013212573180614,1.4843162744900262,1.3680021378659786,1.3913735899430706,1.4594439470711655,1.4890204490535324,1.5091726872738105,1.535360366649615,1.6225942284544392,1.8224620964599294,1.9030124216858122,2.1048431476407328,2.4879395432485,2.684720911454728,2.9738710426804724,3.1152178319360013,3.039592149163159,3.01405269645125,2.989100906375307,2.8258244867732807,2.8380808187902917,2.98871792362935,2.8637571668354034,2.5897349277538195,2.4779341742695276,2.550513014892783,2.59834916606207,2.5867797421136536,2.5634639175804628,2.5611100251664904,2.555338022796683,2.5045763048914,2.3341868170383555,2.0534851098327174,1.6485276236436366,1.5058783209735807,1.4264072276609914,1.3012635262425334,1.378650870703684,1.4419140870529066,1.5990977433415856,1.8358609758633193,1.923061762620757,1.9142253976411563,2.0289640648276768,2.2214907363930054,2.3738218473015817,2.4349158473146963,2.3841229264096224,2.2951927192312818,2.2992177956859994,2.3509933716281695,2.4520983851581883,2.5777060423964406,2.6687717946690834,2.700787988104989,2.6631321195427815,2.5347530317564018,2.3351434265962876,2.062518792715783,1.93439582705835,1.7469857054895102,1.3370077597844983,1.07836616819721,0.96515195934577,0.7382273881586127,0.5677805413083141,0.6154920278361703,0.5803444089124019
0.47612447396052565,0.415192788489416,0.2556042171719944,0.2793391270955283,0.2720667282965822,0.08203198650085287,0.0,0.13734904766013237,0.2264148607915188,0.23781696003503577,0.31233075503965285,0.5143163562735675,0.7976407732361224,1.0345626087269817,1.3052770351152738,1.582184207038203,1.828363985460802,2.0407995707911333,2.2039493456322026,2.2105295683236283,2.3690760810181652,2.568190490519261,2.64018432094573,2.7676919351039495,2.941610530124599,3.1088684082926155,3.2813771582105553,3.457653992698277,3.610387924387506,3.7343921084629534,3.833430061404704,3.9110644511038677,3.97539391116377,3.972614596976971,3.836307073767944,3.8433236595438114,3.812338896554356,3.7026564104702677,3.7215372093377943,3.583886520399873,3.3268595643236027,3.1193672046378196,3.0045054626616503,3.0160661188250018,3.0753620597899576,3.0535406636977522,2.956497787092096,2.7789794637106904,2.625424160022245,2.5000843254622445,2.6297449097665977,2.8051417975565585,2.7856433487545655,2.661927028008947,2.4077963513194005,2.3769155860494373,2.425046821077431,2.3906955233384073,2.3553738012540584,2.207972340658953,1.9957512252979628,1.7919135215676092,1.6447338619890215,1.6019416370545163,1.6374601185507691,1.6630912461918157,1.7066492708407857,1.8088004137510405,1.9691498482988987,2.184178045569347,2.2657449342279814,2.3890395171440777,2.5794022772516576,2.6903005383051637,2.977355610973524,3.1182458122958683,3.044205109290441,3.0543814132387515,3.059591319539127,2.922630927897641,2.9445057411677644,3.1015318352013015,3.005285353459256,2.7656226641496984,2.610029992456021,2.645471221661174,2.6692644852466545,2.614803056759325,2.5589366459744483,2.5456083601346347,2.537088946527047,2.55984392753153,2.5134934738575962,2.1980951544872678,1.7713105620938592,1.6279236050361863,1.4597918586768617,1.1776152110903197,1.268168747885877,1.486146347005503,1.7148296143066086,1.9494769325469243,2.063460445463898,2.115437579154127,2.142155635847509,2.2777903973302314,2.418956083932901,2.44929405699635,2.39017361909043,2.318644997024479,2.336798217089327,2.381144642444936,2.4200539727165684,2.4592464877100335,2.4973764429361234,2.526266736799123,2.4878721639254566,2.3591919506133507,2.1751750223044346,1.8985107603931592,1.7626766515283612,1.6707837250457969,1.4604105401154532,1.2316694901636136,1.053149576276525,0.79521010744368,0.5820730624687003,0.5334734508889466,0.503556294669194
0.5066528700533943,0.4799394182891428,0.3791056166652164,0.25210638668304597,0.16522412042722248,0.18038796785803674,0.2285966393742955,0.3041036254938602,0.40151975923514854,0.3426235261187528,0.3730055959835587,0.6320133346959012,0.9465434038884611,1.0877850534020737,1.3687676612846957,1.6673414852613164,1.808930899022893,1.9378944824052289,2.1407437277365493,2.0806563468117276,2.162833001766156,2.3111103383016713,2.3720867836839328,2.5840223842289505,2.888296281582354,2.999770564010983,3.150776357895976,3.372928159495294,3.462826543813543,3.549033027509552,3.5977987112534815,3.6460004569563274,3.8729082293620154,4.0,3.9360818153706347,3.8728871572063124,3.835948405047798,3.6794760076929576,3.5331869137787066,3.3892097153247547,3.218527022424089,3.0271365894922297,2.942926876746235,2.9903742982180104,3.122131119941605,3.211021945766018,3.1675888436345105,2.930327643286422,2.7574493201761543,2.6617652292190046,2.725555728373429,2.840056443905737,2.871423968604551,2.7761599945418696,2.5755826911544766,2.4902100311860536,2.398191279619917,2.323425944966455,2.365195157264961,2.181824871524319,1.9981594236411757,1.9051743069747435,1.7956684820893676,1.7338072640436155,1.7579503733050268,1.785985780494596,1.838524789217658,1.9626354922112965,2.122505353322213,2.1668701799746293,2.3109828370238956,2.478977577531718,2.5981464018225795,2.8094309390673566,2.993192367488375,3.0976583898530055,3.2235077137720465,3.3037104013855165,3.1684676851492806,2.95229160798452,3.0082788521097905,3.174695907057942,3.176052482340465,3.0148081258653123,2.756445150910159,2.6843780100119266,2.644223617421604,2.5617127182911394,2.567261768412146,2.587141136951845,2.4827766072252593,2.537705491278522,2.62780045081151,2.244106851154618,1.7726740079306458,1.6566222233290426,1.5254432649522234,1.300415408814925,1.389032001899736,1.5180365864198209,1.7802531410589997,2.0511107623235456,2.0872569969687778,2.142517325401165,2.219534249363028,2.44337186025801,2.5725102087594887,2.4433872591410237,2.3449668456154407,2.2622850115156385,2.35361987584669,2.469370221787386,2.486469981424821,2.483512327542641,2.4585182457975603,2.5454363936611712,2.5242379155423578,2.265532886451363,2.0839123264227224,1.8655274259263994,1.6852554700479567,1.598197056043019,1.548446249019979,1.3474732901216608,1.1113885202284959,1.0058497335735364,0.8968391987482255,0.6947757189528494,0.6656187075945891
0.6063322712033593,0.6033417933863344,0.5388443455117377,0.34169649862555757,0.22039176084606327,0.34494308418112535,0.42978591942346583,0.37717449358489163,0.4137628290562629,0.4958203084447843,0.6063322712033593,0.8041858879478542,0.9572946240289033,0.9981687854620988,1.1654859751173208,1.3904999427883604,1.4761857379376828,1.6053280650979307,1.819531022228693,1.828824386275307,1.9248670078047285,2.020909666173583,2.0302021460738042,2.259679947847151,2.463546496853581,2.4592340728210966,2.59424982131033,2.8362912328117336,2.9077132415584463,3.1355464205222754,3.243401744406098,3.2011321789279474,3.358589073291536,3.549941782643956,3.5727293297072524,3.5047909314283316,3.569891661858507,3.618330211436979,3.4908853716726718,3.3706088961483855,3.243401744406098,3.053258547319478,2.9315524807563698,2.9047807490090376,2.859148995834418,2.9137680234163224,2.907291503728924,2.6716222089616637,2.53599190505034,2.5258445568964043,2.584134376105413,2.6424240847961227,2.6322768839999195,2.511920577424221,2.3509750624299453,2.2545006919550707,2.156338504435431,2.1861053926077845,2.2835505374025975,2.0877954605419093,1.9248670078047285,1.8263251991373972,1.640707238278116,1.6418721932496454,1.7222557808990928,1.7658445112155075,1.8088411673738487,1.881986340601336,1.9681572051705176,2.019419299280091,2.2545006919550707,2.4492357401738363,2.587973487102109,2.944398906811928,3.191773636714415,3.3341797070277774,3.498163370065441,3.4460812532008864,3.213011717223754,3.0941514968635273,3.243401744406098,3.325364178057358,3.178952187794462,3.002826910734296,2.837588865001382,2.777279102838972,2.683909928175631,2.5951291785771624,2.661137116885553,2.725332334051432,2.584134376105413,2.548187488842257,2.5091575462668283,2.1326109992379396,1.7665273669464672,1.7317222810711699,1.6379107753352333,1.4565027235761245,1.5545593477003683,1.6442374137892797,1.9248670078047285,2.240709665996754,2.253161173330048,2.216041650073572,2.162287501861312,2.3568673823880837,2.5407337295144203,2.4722068949714395,2.3473884120679203,2.1706372330402854,2.2545006919550707,2.3769493309701084,2.3612281765961587,2.4130712792191042,2.4170546902750454,2.5500120722822097,2.6232893885560364,2.4637105796883723,2.304024531231108,2.1214429224928537,1.9248670078047285,1.726840393082645,1.535551526467696,1.3561980467290524,1.165349079784118,1.1973551792153687,1.2821604382360012,1.2351116194297949,1.2373724554358905
0.7228923847218619,0.7177719245649244,0.7033288774811082,0.6047475861514088,0.5409489086428478,0.5840780117728513,0.5937787186405247,0.5366997010774723,0.5376651889387687,0.6142573173981664,0.7081028996096714,0.8511944780931733,0.9848415311264106,1.043721039140203,1.037337133787485,1.0576475236938339,1.1598096079157036,1.4049594570987487,1.5384918658163438,1.553580376606577,1.6869012717193324,1.786903441561939,1.8065124362926475,1.9799983798017347,1.9554719815665793,1.9153013594791508,2.0573184278285668,2.205759377496102,2.3080716008273545,2.680840245577555,2.928918092899177,2.8773098785013396,2.8108992851897447,2.9617911715477563,3.06731573818156,3.0315672681047947,3.1583781012263628,3.462825807024882,3.5060602709334,3.4792253963978257,3.3752745366649246,3.1955168178274564,2.9799250877496877,2.8018354584405882,2.5690689636397006,2.574169825218257,2.5626154317585237,2.330013572383923,2.2427051844060446,2.2642470060408564,2.3248237435745582,2.4108711177592372,2.4069425237796698,2.2084052592564047,1.98583974621904,1.8898281780292125,1.8544213775767064,2.0000372907161017,2.118733971623174,1.9769115208180004,1.8532623077046064,1.7113413252308194,1.4528373473456784,1.5352964133938454,1.6962314291497025,1.8034020737506293,1.8390311840643223,1.7813014992249352,1.7802750881512375,1.9160023937434707,2.2056959031529617,2.414283149208619,2.54992962563105,2.9081564936168682,3.2283295534847047,3.494433598506028,3.620018046901461,3.4278489757127195,3.2448174101392286,3.285834140178316,3.398860320563484,3.3502534884548534,3.1319352719372744,2.9362394144652098,2.745589454137595,2.639486213689489,2.5392265177901674,2.4607192545643874,2.524246130735927,2.6724108675443343,2.630386136938214,2.5598501165562824,2.4322064912112533,2.16244090126052,1.942827331993213,1.9273042900169077,1.826370161665431,1.6431197238103497,1.7377710396817427,1.9220735374901647,2.2255949439499076,2.525746269289035,2.543663901179547,2.3911290866259374,2.124876818145749,2.2092673204094218,2.372238009556591,2.3087877594057886,2.1844826524214964,2.0407017252569606,2.062050397744307,2.1343846890011378,2.167947567613806,2.2686161996396663,2.3357311629111197,2.429021095953977,2.570857665471866,2.6597851096927276,2.5044208056445085,2.3574281890773587,2.1644783797840517,1.895343833204162,1.6409503232770768,1.50624682582235,1.416298413554023,1.451643676036089,1.5761290936254297,1.7399734851864588,1.8349021835689792
0.9925681601348264,0.9449428042014342,0.9325986469760388,0.9913885614886608,1.0216944474059255,0.906056498575456,0.8023141500336013,0.8495705958844606,0.893529323046683,0.8002269014360232,0.7468354374421114,0.7773411404442232,0.889807729841407,1.062871797373098,1.1051988323668016,0.9676161490222851,1.0306601339054449,1.2817326587394593,1.2985304087047749,1.2947867118396708,1.4806579345912918,1.55743831255356,1.5143844723852715,1.594070376431958,1.5060621497444853,1.6006406156370279,1.8030394540012893,1.8482515369595665,1.9738243947483767,2.1559390544629022,2.430171444090303,2.5832829431288307,2.5265941656800455,2.611830409227895,2.778559494173954,2.742488973773492,2.7395947205555857,3.0182635910062565,3.2022618233029014,3.271812020456495,3.217157332303401,3.1410620204380755,2.912158213871034,2.5722027468512785,2.3393458849211264,2.412334490558164,2.4203635344724628,2.2347760490341697,2.188843962381634,2.2168005239746242,2.254563982101046,2.3503393243338526,2.3230305104921283,2.0475069724152957,1.8425826251382122,1.7989101219510488,1.7171852750133672,1.7547001774850206,1.861282896969021,1.7448617095574679,1.664957366092529,1.6209644335167226,1.5099641456533928,1.6260263005553988,1.748656594814791,1.9107718481507305,1.9898367556307048,1.8481527796494257,1.795566427649969,1.8305469889547274,2.0835130606473586,2.403620601583521,2.5868875342947493,2.783630589490609,3.0276175651300914,3.440936700054736,3.63215973460283,3.4970285681698603,3.4309744332124286,3.397875234123807,3.2241616873874968,3.0347244075169244,2.968865595233508,2.852769216498201,2.565104966964975,2.361101448946477,2.2973047239278674,2.2495643921239354,2.2607857939483567,2.3701331517100166,2.4093280981060627,2.3911618000424832,2.329625653153938,2.1977486059405944,2.0406658620688893,1.9398032566132493,1.87129575356276,1.8214415612758026,1.9024706817056038,2.115607169484159,2.384687490721068,2.600033538619846,2.584146533118319,2.3736406341304233,2.1167527837533386,2.1848107996713626,2.2453052010722043,2.0554370379828555,1.9647277578791627,2.013192707516342,1.9845280275511805,2.0365748706585927,2.2270679502605764,2.28584736553478,2.4298648663284856,2.449541028555497,2.4787131809207397,2.5763771703675684,2.3743626870181447,2.285227652592063,2.0870571798839306,1.8223285074658426,1.7277141875950872,1.6589030447275661,1.6985136136072487,1.6616083484933741,1.6263519611435344,1.8242783449781552,2.0548809467410107
1.1840539335194118,1.1399815935456723,1.0421090192289315,1.0790551392740555,1.1119045670066185,1.018263075254194,0.9640170100924574,1.0914034225159521,1.1761866515556225,1.1218299944158787,1.0412181680589885,0.9154962348994243,0.8058221482060707,0.9618800282602659,1.1653369964500786,1.0927303052154396,1.0609086976648883,1.157016736817543,1.1827342713488014,1.2718892359081617,1.495946151948073,1.5146717462841721,1.343881187523545,1.3627150529533694,1.3235344739362116,1.453965444464444,1.6819255905342698,1.7864098576281167,1.8968146268463832,1.8919612594864303,2.0745705185216514,2.324491378209608,2.4410833578376963,2.534205524102457,2.6384913279606215,2.588782775767286,2.522494894607171,2.630195234996165,2.7711254439427977,2.869719039643135,2.9015396156895608,2.969561492123766,2.8838159434140413,2.5443473463414352,2.289903387113257,2.3582200895301373,2.4182070645801894,2.3446108293344743,2.3160734572400647,2.3239331134412136,2.332364628161551,2.355984562214545,2.2401578481291424,2.0119268217081223,1.9481293115490959,1.9779933522137885,1.889416932530715,1.8695141709510312,1.9496918537993206,1.7910446727490534,1.7263129444999943,1.7758898325596193,1.7672110515646702,1.8328947568129559,1.81798179513105,1.9219107696504483,2.032745347124347,1.965642259965122,1.9376429577224035,1.9282856876205432,2.1543719970796644,2.489493320016124,2.6417454287605304,2.729433889169155,2.9688072415715614,3.419595469132865,3.6462197252618234,3.5761805951528296,3.509958030307507,3.3216336697092848,3.03442681857677,2.777036404654058,2.648528526209746,2.5780745104057767,2.493138913471024,2.392619757444752,2.3547579932912446,2.343943814559725,2.3504443167180367,2.284161593078548,2.223422062090212,2.1767367748093136,2.093821544481442,1.9829709582592276,1.8502014527556743,1.7594263083506227,1.7164179096229977,1.7144698404034713,1.819121680868391,2.023221819509913,2.2758677841589408,2.4952785109029616,2.5219003429972253,2.3530436334349685,2.128310529601479,2.1628000488932955,2.2272117161480423,2.1294902019265107,2.059290663716172,2.1063265058320875,2.0918960394146566,2.1758071501360887,2.356831611298595,2.347123978617509,2.499595024112514,2.538726459325987,2.4818720517862225,2.418803200285756,2.210797317323014,2.128008575188509,1.9458859374342647,1.697327291764552,1.6098203024031172,1.554751060109945,1.6248036550317178,1.5943746333094932,1.5551312430589903,1.7620739031445625,2.0158352000488047
1.1639142575458026,1.2096199106231147,1.0635645997509802,1.0707399634832804,1.0995850922013646,1.0336832514601493,1.0460132623432548,1.2105568847632326,1.282871660330407,1.3189642475512644,1.278827353691639,1.0958937810100533,0.8752523224867973,0.9601325865931135,1.1533663910757799,1.1897244800906073,1.1721367453230314,1.1953617974931945,1.252331180903499,1.3550092750640583,1.5486096319055425,1.579274186542953,1.3786588648606553,1.3525204029674016,1.3736531963770924,1.4770271874279097,1.631698633839097,1.7664469464641255,1.8805220652362995,1.9084934121054966,2.02452693010447,2.212269918399919,2.373714755069714,2.462616706402907,2.524004537734005,2.6170819440876136,2.6024449005493717,2.5135076201998863,2.6007392347992946,2.6281964010378993,2.656917307187749,2.7741690442222766,2.7916218729860343,2.6105848679965753,2.42765807377067,2.4090686011396794,2.4258183861631677,2.4098358560117497,2.3757569122012425,2.3552411056162232,2.416680622671886,2.417443677848589,2.229208634455789,2.1189650838063945,2.1158458153314372,2.210415955512111,2.195769573177592,2.0673792033148417,2.06123167818427,1.9725020571139413,1.932314772090453,1.9563771264365444,1.9677956169253028,1.974272624735189,1.9333065782729644,1.959350259787998,2.0069967753707467,1.9856170426364126,2.00535495235814,2.1188271201296334,2.2500549091749567,2.5082645215703354,2.7560514110497523,2.7496145305923125,2.932381662715392,3.2152615750788014,3.336923802716584,3.405479187820176,3.3726816300093434,3.0807420169132786,2.8726505743672845,2.780643353543692,2.5762893451591844,2.4035178932441856,2.443094275130001,2.494068151330202,2.49696000998496,2.5229892061197963,2.5407124731615522,2.4597831645706627,2.381112002707256,2.2676417966355724,2.0669590587907987,1.9266002294507247,1.750807041459761,1.7177463948378229,1.7321698986024077,1.7581701205231524,1.9066534792855183,2.001322015289396,2.163701509819956,2.4056822836145644,2.523040191895133,2.4809608652492376,2.4521277461863265,2.4669779426841787,2.4383489877592144,2.338241512397243,2.248103561245889,2.269905506117446,2.344040149677143,2.4661966519881173,2.5794375694285163,2.56614612302175,2.6164418220989885,2.6622068603423723,2.6287104584866374,2.526606506890116,2.37640009186281,2.2100356988842,2.110622720514031,1.9355319154560062,1.664856352367114,1.5830472812756287,1.690217907456839,1.6700774394354194,1.6796682911137466,1.9212535210669612,2.0715080564524526
1.1291107189266933,1.2365349477649994,1.1110434820985775,1.116928655206705,1.1478574959367946,1.0891237247201364,1.160952809202019,1.4008923468509247,1.4381322982140317,1.3165293820634547,1.1973551792153687,1.1138132180327847,1.1020786797454514,1.2019156799899915,1.3415536721436343,1.4138181250452664,1.4507792019002075,1.481649062697989,1.4906313269423794,1.434172022322044,1.5385775543376112,1.6438778056635912,1.5931368651985465,1.6160658572650273,1.6711236793339548,1.74331097204307,1.8310458317176173,1.9313595894849354,2.040328081307281,2.153467017987148,2.266089346087538,2.3736273350950934,2.471916673917895,2.5421693622202626,2.5375578019914364,2.6806363024762065,2.7129080878985925,2.562797639594374,2.621784129321735,2.671754683562901,2.720623296682764,2.831032845817468,2.8721530946634175,2.801610885256734,2.6886700249985025,2.6382501033530295,2.6164712936454264,2.592983134244441,2.5528309520201016,2.452251600360231,2.5158898789773048,2.579528120754946,2.4789488059345084,2.4235226263745435,2.3253105030034082,2.3935296546015805,2.463655431057101,2.371009561822205,2.3396225122238765,2.3249633650258064,2.311156461271846,2.297997599984616,2.287597422801679,2.2821960619677575,2.2834395401908267,2.2923625666268777,2.278846252320792,2.2088103456621897,2.201886355801286,2.3706793699838045,2.4476454186886296,2.569546992122919,2.701008729987807,2.6318571354997817,2.80736498366208,2.986677608469474,3.0156850517295637,3.1372175308841546,3.135849019625324,2.853906597154095,2.720623296682764,2.742205383817896,2.5460679689013297,2.316565632065573,2.274131689037167,2.3486034134092444,2.4027143146911314,2.4738105523314093,2.5295465883627326,2.5438642340164566,2.5158898789773048,2.4675992397225164,2.380042185571571,2.2416575814484867,2.03680144238169,2.0239090038742558,1.9715471882192208,1.8185998318795633,1.9483413109739587,2.1194721233431375,2.311156461271846,2.566398988890185,2.7416881581779156,2.7739502916688434,2.714344899466292,2.661983244983777,2.5629035161249516,2.377836092962983,2.2442485724535497,2.258184672099206,2.379400921560521,2.5183912028023316,2.626777346076928,2.6603154501708723,2.66137598376943,2.701970239190334,2.722581312549213,2.6820660408727615,2.5713793118438115,2.365517097070359,2.311156461271846,2.256495510415134,2.0488306224545334,1.949346118022639,1.9770807565684894,1.899149586094234,1.8703251266005536,2.0305626199261693,2.1082649599595884
1.1036201889818709,1.2263947464610752,1.224249512595881,1.263679420895901,1.2651430515708593,1.1761585062287745,1.2599662270813599,1.5862666424901748,1.6599761589925093,1.3583928664711278,1.1205396564339738,1.0903563721498897,1.2058026085707825,1.3481109807077047,1.5248394666445826,1.6302357583725164,1.7204856829806165,1.7756033322888125,1.687329530128504,1.4635776630139385,1.5042863048744537,1.6316847269531218,1.6914711849690987,1.841103613999957,2.007667667495824,2.0544573301004028,2.047487521194647,2.0976647999143556,2.253777018132295,2.4170769781320387,2.477048406941345,2.5142449246128895,2.6251707047228816,2.7316776316783167,2.6509160898655235,2.6879870219098105,2.7365607722075653,2.6106980387348955,2.5539818895873565,2.6552229879830507,2.7750161301457594,2.846204429529222,2.8907929636388165,2.938529722017743,2.9192688875589035,2.8498734160241073,2.775543670826993,2.7492485676644236,2.7559246834000706,2.627582729762202,2.622572124794611,2.674699406804081,2.653941491465077,2.6381904971503594,2.4978551713685695,2.486956519817073,2.557944486363626,2.5494202836297424,2.538068764927799,2.535256958361052,2.5292831495770134,2.541867941979072,2.6148098352150058,2.6514949110375583,2.574448847084155,2.5203485555589857,2.536443924893827,2.4791265193595273,2.3992083795269123,2.551403129274065,2.675735257982497,2.730517631610532,2.7020278560636197,2.619551880715684,2.774377997486519,2.929733644267972,2.9163431734651755,2.9623175333671323,2.973301873439896,2.716337102326609,2.5898306366008756,2.6134675536325043,2.4292984600453877,2.2168222408204055,2.1177304838866897,2.1909765234818597,2.334527066041978,2.529564123932863,2.621776908792858,2.583171319646698,2.532574274007135,2.55055589599285,2.563462665039739,2.417026360751032,2.2183633079836285,2.1705178548574966,2.0400327579922597,1.796949757570743,1.8745658058371788,2.0770207552629,2.2962086034369866,2.562984047125592,2.790944174775701,2.8900964036387635,2.7801025506665615,2.6974456200234993,2.6084226879921792,2.4087718595064858,2.239908813561745,2.219745155117222,2.324351241006297,2.4613087591720055,2.637396091616133,2.7583013425836658,2.7755936250982045,2.8370317054159786,2.8652669941594024,2.7455547513916647,2.611406755747854,2.422555775454225,2.349287337483762,2.334664219251212,2.264769904953526,2.159880192269422,2.087677334899844,1.985250959980366,1.9297371319261727,2.0178173273241833,2.102912448213888
1.111973825140747,1.1712948905990408,1.2781657174741146,1.4070096452266816,1.4308052296964437,1.290821757339686,1.2423700929230492,1.4885934063456512,1.6863339997095579,1.5588801342841543,1.3723953876145678,1.305617136761164,1.3009888514297347,1.3933024658179796,1.5582075567550147,1.6991192723062583,1.8162197374188362,1.8194517437687756,1.6395066043156807,1.4005998049130983,1.4744552424097321,1.5652135696135978,1.591251386175767,1.826991062679864,2.0465371375009,2.0127194865791367,1.9433532022364042,2.109234223862772,2.40949781737411,2.607408351042663,2.5209765942135713,2.4183705579840518,2.5688197817145704,2.7897606711496326,2.8018207226673693,2.735002169474212,2.7702944936909892,2.659347309870397,2.406271088272955,2.394436346727734,2.501900583190329,2.48010018557496,2.5401579660153284,2.783839984828048,2.9447244200423315,2.8482923412365952,2.7176410708987415,2.760533812226315,2.861750301880734,2.8104524965457505,2.7338891028441297,2.6718712435290617,2.634806205794062,2.668092622881429,2.5649289481538764,2.4457343730993153,2.410615525772757,2.393074871800615,2.405957142624528,2.432247567179101,2.4383788276999825,2.4152964914934434,2.490952898353447,2.606840213306212,2.530644440306967,2.435000209616374,2.4926496489607266,2.4616863265213045,2.333728902885581,2.4615561359649165,2.675839218862556,2.7879490551901123,2.8102027251896917,2.7762195270656735,2.7892998098422144,2.869062045194174,2.848638631907237,2.8203572938725046,2.8377671678573293,2.6113906200761794,2.494579887894658,2.519588815931257,2.3434213577202523,2.152645130235869,2.126694125797675,2.2557486277495387,2.432491444225872,2.657829746265458,2.77540810171338,2.7559080319763334,2.718615179187371,2.6812557207034593,2.5344824829601045,2.3081715462092114,2.1192946493744333,2.030827725696234,1.912977271893362,1.8023510170962231,1.84973664962892,1.9175154876890719,2.0778490714952453,2.3593852102791155,2.6541322460493944,2.857999605523351,2.914256514298526,2.9037796005765517,2.829523902639862,2.6479247279021054,2.4772538604594483,2.4289258660195503,2.4965131108226664,2.5636370629157836,2.7392197688060334,2.963068099976032,2.974613283577504,3.0664346126219413,3.135113336147375,2.8986708553593235,2.6849185918524583,2.511963053290524,2.40783116458363,2.3223499756454506,2.217787820780284,2.1050384150555983,2.030642893050779,2.017327611530831,2.008122745012254,2.0684588842087255,2.1707962136136
1.3226018468491934,1.2924136629205139,1.323113988647413,1.5131566509212473,1.6284485485373899,1.4684314056756156,1.2720547186414088,1.3529794223031675,1.5977735499207104,1.7288894760275864,1.6916231660501342,1.6369662306916242,1.5587312661352113,1.5681232217145176,1.679957241206851,1.8451171044529813,1.9216279423862397,1.7616390136374425,1.55258066491198,1.4075768988167394,1.565509058706068,1.6681130871864862,1.6280443278582815,1.7768891666500275,1.8845006963758029,1.8307484453943452,1.88531284470197,2.2692339969318644,2.5940598771935397,2.66417150730677,2.4646446803527127,2.2955668236738744,2.4204512123231146,2.6709271225389326,2.7883418372252597,2.729599150865804,2.6851201772300914,2.5077662313989415,2.270446898425505,2.17118564326034,2.1671405814131943,2.08847862940805,2.1674369362323413,2.4601161930454074,2.7239034798012702,2.7072941266965573,2.670871052921835,2.812012057104363,2.906370738939347,2.839406596306788,2.7565985503093664,2.686156249445106,2.6459777638655706,2.6715214899517132,2.53394005914792,2.3685292733134484,2.2821560543434685,2.2285205291056203,2.2642170555817893,2.3468920007076117,2.3762900893157317,2.2669346268788018,2.170088712301932,2.287671101667773,2.3896216538650865,2.3754368880463628,2.3932854459999118,2.3169758023131184,2.219066425402764,2.290444853100182,2.4706240887305744,2.6049549921594632,2.676902994331222,2.653984667280608,2.627544195715235,2.6481957924504655,2.6062878428471046,2.6058725887577987,2.626916009702917,2.423866964555234,2.309584706860895,2.3271643001137674,2.16619760244549,2.0033949563721647,2.073544162707103,2.2404642416937945,2.3366647109839644,2.418961278292961,2.55163713335278,2.685522832233296,2.726050776674715,2.674863858033203,2.4718855445969705,2.198906285124097,1.9963793238166272,1.9266462247780203,1.8364574891730747,1.7308854549297903,1.7663558609659167,1.8583754874685878,2.0481121522016754,2.3392314248026493,2.6533770376719303,2.884317696492142,2.959872868590132,2.9587253939295834,2.8986436678577348,2.7512020154411747,2.6183183491395376,2.577252843691096,2.6163585649803025,2.5902551005484433,2.6300559082603807,2.8460787333836657,2.892850961726555,2.993592664767864,3.085579771261013,2.8796708440864567,2.6183786921308685,2.444208225906477,2.3762900893157317,2.314353166235068,2.187241391784939,2.04627979564135,1.9735755812175773,2.017229001578422,2.021757056022389,2.0026205362303666,2.0640552089005837
1.5182674959861595,1.571149323263299,1.6680371242755434,1.724561947827553,1.8208643057796723,1.7593755988710336,1.5188127564346885,1.4364465994366662,1.6452742043732385,1.7306167849445784,1.768074457356993,1.7478845876558575,1.592790979761668,1.6003671933649528,1.6213761326007394,1.7978783967891339,1.9414481660796057,1.7645566230559002,1.5958704248095015,1.543636382123061,1.7618700153023636,1.852758827778082,1.7035020228164293,1.7435670613618963,1.8285154231602,1.8783675662536943,2.0458012421962106,2.3738649125988136,2.539138545224051,2.4699051303552286,2.2946237341878706,2.125245138797353,2.0971875082197986,2.2587706401212517,2.415417398512704,2.461236074970604,2.3711613034469257,2.1354008126631574,2.080376809193767,2.1229541865547414,2.0830336506854015,1.9604306774705427,1.9332563436766919,2.0692542475682107,2.2509079630865934,2.4237495204426804,2.5733151503715663,2.6376608197820093,2.6234962051331623,2.533796643235068,2.484679695497035,2.4073082288315275,2.3764103700646304,2.4451789449672656,2.27747748318593,2.1443958786105317,2.059956287802324,1.8999489534395984,1.9458107067070536,2.147585528822325,2.2333458501447017,2.116272563323854,1.9255132598894031,1.9753315604233381,2.2174678334648377,2.233262187792252,2.1684529862154944,2.0852426351894833,1.97933902302413,1.9960935280999774,2.1478062522854264,2.350389794357127,2.496077337169153,2.434005986997301,2.4566905310057985,2.449697817182545,2.312507215923948,2.2924383453406554,2.3208297964407656,2.1706612339309155,2.003668139187925,1.9092146395596714,1.8361086750012692,1.8385222841362108,1.9370895166172737,1.9467818033720312,1.924815412951065,2.0352636723477247,2.2395655805640455,2.3245646150025054,2.3046838834037837,2.2640698820467664,2.165567445523504,2.0162140567782605,1.8236787555757403,1.664033580469442,1.6948081744933639,1.7785292029501312,1.6913642216752467,1.6931646384471206,1.9922334692806651,2.311514319524465,2.5690461231912116,2.7757572658597995,2.694002975005255,2.661368100130758,2.6343109364561776,2.4317747698953753,2.3252007214929282,2.337047730569354,2.4519944242781295,2.435598703045656,2.295275239561307,2.418416938830258,2.6051181908478616,2.65931555427911,2.662035483299838,2.6016949233714004,2.3913733320670394,2.261590661881568,2.2333458501447017,2.210123210957403,2.0189359659185144,1.7531466585934277,1.6305896932255155,1.8164425975690541,1.9535551130443791,1.8908690739074916,1.88196586708642
1.9248670078047285,2.0181981733830234,2.1125419444574813,2.042754538194498,1.9863001930828366,1.9248670078047285,1.7378670985034128,1.682762932427712,1.8461346740627478,1.867104623363583,1.9248670078047285,1.9215337169019797,1.7524659211298683,1.7917055445483423,1.773435948714499,1.9248670078047285,2.1085336299448003,1.9945699458526644,1.8551640651518635,1.7412004409238062,1.9248670078047285,2.0457503208898817,1.932461726891342,1.932546143300937,1.8939815639267683,1.9248670078047285,2.0796311606491784,2.230429548526117,2.230429548526117,2.079631142229462,1.9248670078047285,1.8311983377605736,1.8704379335494727,1.9640222136623753,1.928537816700317,1.9248670078047285,1.9211962481243203,1.8857117973421529,1.9792960820599845,2.0185357146883165,1.9248670078047285,1.7701028549602786,1.619304669700222,1.6040306539448808,1.680104985753086,1.9248670078047285,2.139081329900586,2.1201369093321873,2.050433533815984,1.9554147376925533,1.9248670078047285,1.892631488501713,1.988325077125195,2.1516972147841362,2.0218687900228205,1.9248670078047285,1.8906485001045872,1.7601452667259683,1.7993004817934732,1.894319277916904,1.9248670078047285,1.9248670078047285,1.9248670078047285,1.9401410534921093,2.014864904641496,1.9248670078047285,1.867104623363583,1.8461348582599129,1.6827627482305467,1.7378673379597276,1.9248670078047285,2.122024653980099,2.2280667593890637,2.154117952349372,2.2337628356873607,2.2545006919550707,2.132077435309403,2.1785370442234555,2.2354082873841223,2.1183749529284146,1.9248670078047285,1.731358012757201,1.6143257282253347,1.6711969898057184,1.7176569671141013,1.5952333236543863,1.5209523538666263,1.6969657679883452,1.9258800037844919,1.9774926306398133,1.9248670078047285,1.8213771106876868,1.6760965423023895,1.671734882367638,1.7022986811556649,1.5952333236543863,1.6313300553114616,1.6950781338587324,1.5446223895485645,1.5476913721974126,1.9248670078047285,2.2070233937030945,2.3064612755300034,2.4283204467768553,2.288192637521419,2.2545006919550707,2.2659979474541485,2.090659818559898,1.9706884195905328,1.8450272070264881,1.9248670078047285,2.0250230007000227,2.0012365708293727,2.090659892238764,2.2659979474541485,2.2545006919550707,2.164312639174773,2.115078965693131,1.9933040462296572,1.931375395904177,1.9248670078047285,1.9505942426192011,1.79297191847905,1.4620027404117455,1.3184250287697552,1.5952333236543863,1.8879487590931694,1.969618174196438,1.9893380786452637
2.3578995864626284,2.402406926461787,2.379502561556298,2.3296457674843816,2.212118158355482,2.0536873491102874,1.8666875042779791,1.8230827948574804,1.9222757589236343,2.063661736126067,2.172250026579651,2.127317743720295,1.9291598726885375,1.9545414266976697,1.9515623944319997,2.0503332108299386,2.1631789608819005,2.0726479053503604,1.970816754360481,1.8736193593578385,2.057316005635844,2.206469881221563,2.105635379648409,2.0447883235648665,1.8743533574317257,1.847321612965948,1.963388992160053,2.024833885470476,1.920934462220351,1.7025175073879641,1.5273027353352717,1.4776330119043681,1.5992977077841648,1.6547144196098365,1.5117401378811564,1.4574044423788166,1.4990106401860892,1.6303088662273981,1.8394405898936321,1.7875385625975277,1.6163885154393696,1.456199092968951,1.249661942942644,1.148528342012581,1.1751155818792134,1.3679556833409063,1.5464065232910316,1.5479516427918898,1.4850372958736224,1.4110185491702913,1.4307389555563923,1.4682610232977733,1.615989212824573,1.8278497161853238,1.8047278881065585,1.7691696752817645,1.7525540778931499,1.6477844433410624,1.6780904581963427,1.651942491729363,1.6163885154393696,1.6716396155937783,1.8022004174939268,1.8412382252883108,1.7979374227707337,1.6774839890298063,1.6371150251617013,1.5842307849016972,1.3783113584887228,1.4402077950324677,1.5784992322293758,1.7442844540613376,1.8962017821554649,1.854035525959901,1.945922452219808,2.001484914657401,1.9570771769728788,2.0947016753763683,2.170989694315963,2.0398656174845256,1.882415916020239,1.7356665133900655,1.53510109071983,1.4764785377515406,1.4920510081737124,1.4050008646214935,1.3297719793820009,1.4493266230551634,1.6281222432591758,1.7372653447843063,1.734613513455566,1.5712459162567483,1.3108131177558477,1.3565895025446102,1.5317832208613162,1.5881295021010633,1.6408111438990252,1.6444322207112325,1.5817616955805869,1.5949860573797747,1.8880486123764433,2.1068422210553126,2.0840597946732093,2.0609160287120645,1.9855080439638846,1.9734371432331155,1.961154655218641,1.8416387988635476,1.7103203940227873,1.4932271439131715,1.4935221909324452,1.6312116165342154,1.7571601306267353,1.8677984250110868,1.9767828544931547,1.9742492501149207,1.9038755442749937,1.8320573412406476,1.763773361450171,1.718007789035008,1.7419550414506249,1.7544742780815763,1.5330670382635718,1.2342627652135254,1.1848142257386363,1.435886308499454,1.767523449956909,2.0741484491372315,2.200101301072993
2.4230411718240523,2.4578926753849886,2.3966964091057354,2.4761852958644863,2.4528520462794643,2.2124971992821028,2.0139977964861515,1.9703929627325665,1.9678900041576983,2.0688762657752897,2.125157976698764,2.0736702548765646,1.9551528231383764,1.9425516935989937,1.9652131910884232,1.9935995353221274,2.002347362624465,1.962537819361966,1.9296778400099157,1.9359372873673975,2.1586589098047635,2.325687701958377,2.1765145040900244,2.0178205415647166,1.8941458470759769,1.905787718071945,1.9594228288661715,1.9365846586657067,1.7940371491053213,1.6048458737587783,1.4801513555474624,1.413160430647078,1.4010142485348773,1.3608389311465838,1.2350958521524507,1.2254820863467684,1.200957191620974,1.2510602941422428,1.5462474874585677,1.605644994740434,1.4734430053078993,1.346956396036578,1.1506026231297264,1.0182773689542162,1.0234534566550546,1.1134513811213969,1.203449379266605,1.2371941525799428,1.1883661365152975,1.0919096700048843,1.1755597917628944,1.2835428748005238,1.3422123980459482,1.4892202661383793,1.5086830175297494,1.5508255238033208,1.5508681838667893,1.438979605174113,1.473652805879102,1.501720622559894,1.4734430053078993,1.4679516825784773,1.5646632990021745,1.6917979691599423,1.7546744819804703,1.7245760389106932,1.6491400607983266,1.4845580885285468,1.314523843328375,1.3189384599481315,1.2695660675813505,1.331169078040876,1.5285750219949834,1.5284072920563203,1.7051234183634112,1.8333714314470095,1.8139314928745538,1.9153105445859184,1.963522049284825,1.7821306535543826,1.7063491768191845,1.7569924375275052,1.5881264444281205,1.3454863553002698,1.2533700529154248,1.2362125290469719,1.205304686793719,1.2673320506825132,1.3894435352063041,1.494216319529917,1.5193494701347505,1.4580294970393253,1.34827498986363,1.3593367295852257,1.3721896025415672,1.5191591944630627,1.6407324732897532,1.664843642762713,1.7874146531644741,1.815805072760459,1.927187464691706,2.1024256151061715,2.0765306894949336,1.8917841400972695,1.7511941686419357,1.6762447105021046,1.5639079064275454,1.4094263857134322,1.2803705575419788,1.214483231537384,1.237668276083258,1.3070162984282898,1.4254247199816275,1.572870793130153,1.7209898674612982,1.8337090740607436,1.8788911973500955,1.8258408619012698,1.714149079459931,1.5622065140517019,1.5976599002697605,1.5774895738878563,1.2662956837520343,1.072261947820185,1.132485579388131,1.2285333492283208,1.4301837116215075,1.8529947659270316,2.102082050553575
