2.1801305364507404,2.2889809218659494,2.1672033863527167,2.093790621511319,1.9282735219993525,2.0259552790536848,2.196321959680323,2.263472029859179,2.4087300295559357,2.3266116855501964,2.3129968018914315,2.4065638362399224,2.216459621749525,1.8697352225791146,1.5976125200325149,1.633920771449633,1.7847930216010062,1.838772722273319,1.8527970115959695,1.9712121749027736,2.169461931608781,2.317812992028496,2.439888168629206,2.5853592805379457,2.8152924072583985,2.840658296296979,2.8459524557892433,2.8915816731585946,2.668381685728536,2.376167716692093,2.2662766647995176,2.1099667135232876,1.8146578937406401,1.6027916871055277,1.4090177592184043,1.4100461275731004,1.4827334689198595,1.4812533517356563,1.5414900869507107,1.6760957577576128,1.6964769624339755,1.7597718529186959,2.0114721595364187,2.1489374256270204,2.1088356840205886,2.188764813022459,2.318067937746704,2.3607456056752487,2.4283514025130466,2.4830062817219467,2.494135187726699,2.4708753604825056,2.4115707632983976,2.3677706844975965,2.3658428294619,2.3809864592697116,2.3963249695712623,2.4048539662572663,2.4034617922521564,2.4157154626782473,2.465653067108701,2.51992259409108,2.5555329187595297,2.599618473119453,2.6674137472326738,2.7416078903694294,2.810512315923457,2.8826761749165635,2.9215018454145207,2.8979436809626984,2.821078491657464,2.7182921083245164,2.5918905449845107,2.431240964111824,2.25066365111837,2.0826302575054516,1.9442503599769896,1.8684452332111896,1.8559507839406806,1.858847596791032,1.8291530793405262,1.7646858313627056,1.6401081193929594,1.508787655045018,1.4393664100016421,1.4433159636991242,1.4847561620390035,1.5678877917961644,1.664103629616876,1.749879156856621,1.8351389916586907,1.940107367748939,2.0643269549059333,2.1992697301831665,2.3345916754770064,2.460600892240402,2.486795893527561,2.523950477879854,2.705017494825341,2.8118380601770014,2.827064263094169,2.872650188419836,2.954205172331836,3.1091230656229816,3.309201786867501,3.489615843111225,3.624104134801214,3.629152795920179,3.4976659091332487,3.332932986899748,3.2314621380581285,3.1362595528402597,3.0162427372292946,2.877203211991193,2.7264680726481596,2.5722106979347044,2.422571351155291,2.2845599622318353,2.1627467256994235,2.057767116384593,1.9645917407797062,1.845284632093539,1.6938861192514811,1.5767515559777063,1.443090851701679,1.4653674258066856,1.4495906581471283,1.3819388510821984,1.5179859878306263
2.0898884039841144,2.194531737543079,2.0679199624917204,2.0146437575292855,1.8966116428817603,2.0459630898532666,2.2296177511434103,2.25131644607724,2.3866769763166,2.3653065849054764,2.4204197432138725,2.521451340240127,2.2508333718409324,1.8395927186627756,1.5800164589322592,1.6592407994296854,1.8331289488658644,1.9030951246881298,1.9509605977431255,2.107522204741135,2.309255719604925,2.4272727146159974,2.501277048991544,2.622144987507295,2.815599628285099,2.8246854547948526,2.83559405534606,2.894140014159747,2.6527630036404433,2.350272511150022,2.2064436461235424,1.9969987774141231,1.6615419737578614,1.4412935357686092,1.258682292287857,1.2608411266194157,1.275372601625752,1.165407760997157,1.2189234893015946,1.405422829015057,1.4524411044231276,1.5040511872395474,1.7591560517735716,1.9618539292303039,2.055821841770829,2.1902718137039274,2.2731798894468382,2.2555929442057048,2.3729074876871263,2.45540747127858,2.4438066289599374,2.3712721688577987,2.254047656915924,2.199308978100259,2.2447540882639245,2.321014050820616,2.3899852376119948,2.4254132782465834,2.4066040786143734,2.377975739616059,2.4001459730808348,2.4243326014348163,2.40618262758573,2.4064254740727398,2.463539580032702,2.5477370360384053,2.6322737345977614,2.719240621753304,2.7508021127312885,2.7017154986113066,2.607363307029494,2.5061966295453413,2.4006582180663334,2.24839078567634,2.048131404678312,1.8479034070970974,1.6812491683850337,1.6072969104265076,1.6365696080704326,1.6893189246627613,1.6792493975080092,1.6060606341866728,1.432277851651227,1.2569917810751186,1.1943237302122045,1.252400172558241,1.363914013117423,1.5168350691807522,1.6560795852290728,1.7566376713839524,1.8509313847294973,1.9614795989061764,2.083343183985948,2.209903860503356,2.333871920389313,2.4484287341691506,2.5184356151511014,2.6534159643422064,2.828480370373047,2.8240823495553418,2.779045430988869,2.8208430041549093,2.8941078600384804,3.0074510049091057,3.1297245094557313,3.2213959754841066,3.2749078585534237,3.243722869131467,3.131153876166059,3.001039672020007,2.9056229469842187,2.8078689156695518,2.6905538418108725,2.5588552682008405,2.4191303298025013,2.2783247808895526,2.143231196153863,2.019568152914128,1.910888483714733,1.8173381303525424,1.7342238124405687,1.679841845479492,1.6522278695614039,1.566275643823296,1.4105837312212473,1.4357699549636782,1.4435713072002756,1.3897572085396308,1.5334122755683772
1.8943812296330989,2.0013725583337085,1.8945689127417036,1.8861261391343302,1.8186977193048637,1.999596407768091,2.217108803513325,2.2546634912096266,2.346463838911698,2.2653898077269736,2.3251660760363424,2.4796173699347563,2.2629579948504346,1.8558192130885438,1.5737951668444203,1.6763213504094479,1.9274380970183318,2.084806561137946,2.1357487995407993,2.2194231378272153,2.3736907223028876,2.468198546461346,2.5195365457444088,2.646487248437923,2.8976531668196253,2.922626245201495,2.9172790479834294,2.951725327164869,2.65263478493832,2.2395321263759063,2.0267791621139857,1.785224160301753,1.4439954101152093,1.2494728215798308,1.0974230759056705,1.1057781088510483,1.159668880174054,1.13092283057304,1.1871330079424658,1.331534448367542,1.3573270590587674,1.4356997131255709,1.7493926683167145,1.958903324523988,1.9672108141204725,2.0555266371038803,2.1879229717196877,2.2896076288934415,2.462481344808664,2.5710910052458953,2.5493417587296614,2.451346571505495,2.317336017130655,2.285119642833347,2.3821948575549223,2.4996218078664625,2.5972423830035836,2.641261441314784,2.5998083481778194,2.5331112864744583,2.527869766925051,2.52318467941645,2.458683180669764,2.4188296058972116,2.4588840610562346,2.540706885483528,2.6176520291604066,2.663462171471896,2.622128877298083,2.5074867059282853,2.3902241394181485,2.2970989424741557,2.23254656065928,2.1233806670727144,1.9393408483039496,1.7312279267758506,1.5511367874108062,1.4688172646813895,1.5090410096314522,1.5866708040512603,1.5962180919240583,1.537249886515841,1.3840018860215295,1.2515537567516197,1.249686431020493,1.3669464782386542,1.527556579154198,1.6929772017998617,1.8055452997536463,1.875180212247697,1.966547966855134,2.0790952267836804,2.1951868197538746,2.309681811434576,2.4174302386505397,2.5137722731100784,2.5229996440505627,2.5570576870791415,2.715555560564674,2.778679072897901,2.760554026779941,2.7834897935194927,2.814770250847891,2.8530176112431493,2.887047013899796,2.9053522556911635,2.9048727946499255,2.8735781497298754,2.811809353507912,2.7334899360583806,2.6498688012406584,2.5536447094238692,2.4433997301573105,2.323483222145266,2.199058275400115,2.0756283992624307,1.9584538422285445,1.8518352138742977,1.7582663439232655,1.6774823959500922,1.605358514142808,1.5200993091637323,1.4241048375510812,1.3527681350404144,1.2587841910185518,1.323890982810937,1.3462636877939576,1.3007188004086292,1.4416026131157125
1.900818524592566,2.008545347222411,1.9061622520867527,1.9046698235722426,1.8396173894924177,2.0132053246827035,2.205252717139267,2.1841982648310223,2.223224948309764,2.126604117729696,2.1974270006973797,2.3629553893721544,2.17345134647206,1.8280074561760873,1.6246689037095448,1.7884317245024282,2.0753474650585804,2.2321582913578406,2.2675031290600796,2.3425910573223123,2.494035476802194,2.5869256171751536,2.6494488750466316,2.791925576402402,3.028101707529693,3.0154174702158363,2.966188516099237,2.9400299119514086,2.573612286136144,2.1245660602443595,1.900818524592566,1.6572055595735316,1.3401002399758202,1.1874068814990688,1.067723142806132,1.0828280219255306,1.1201644593801627,1.0601345712957309,1.1145272120991252,1.274061243855331,1.307601572382938,1.3739875015273209,1.6522553165845058,1.8338519566578357,1.8541964617140878,1.9622257444060283,2.0935522335081345,2.1865765759016598,2.3810493089747853,2.5079491948972668,2.494035476802194,2.403049490231213,2.294410990530578,2.3027905202755603,2.4321701187706943,2.5554426883285113,2.6470379789232057,2.678099390444047,2.6151464606964265,2.522759117964057,2.494035476802194,2.465174202741878,2.370893313752689,2.3004997214524936,2.313545676056311,2.37122102060098,2.4123234017760877,2.376985193789574,2.2304000575989704,2.0387945025469048,1.900818524592566,1.8178170775908118,1.7972096504396198,1.7485767989252965,1.6128564574392472,1.4304160285841518,1.2645484636528819,1.1772128317087105,1.2047711014404185,1.2814882491935116,1.307601572382938,1.2814881165991971,1.2047711677375756,1.177212433925767,1.2645478006813093,1.4304160285841518,1.6128574850451844,1.7485768154995858,1.797209667013909,1.8178168869864846,1.900818524592566,2.011307850319317,2.1174137074543795,2.2150226971632705,2.3005516321266213,2.37122102060098,2.368823881137683,2.4065758360253846,2.5397655321477237,2.549155198529158,2.494035476802194,2.4939667266501244,2.493019870650268,2.489299473076824,2.4802918772126263,2.4633318047418777,2.435990227268644,2.3963809906691393,2.3433867226550578,2.276808100823126,2.1974270006973797,2.106996882641369,2.0081482438247678,1.9042116307108454,1.7989706023819376,1.696320898925807,1.5998626124010291,1.5124043638645224,1.435385099965837,1.3682286652598852,1.307601572382938,1.2490354592334472,1.1950518718902905,1.1364152848626419,1.0374364798649236,1.1031039467161792,1.1309461008752353,1.087368515334168,1.2278734729361414
1.89811536858725,2.006895550751369,1.9008753987119777,1.889282598585696,1.808410803771486,1.962950136151157,2.1218912848607854,2.0413526529437296,2.030719981161,1.9187431005377165,1.9945232829981006,2.1670227928963657,2.014019147149391,1.747136841244098,1.6332532419475638,1.8562908179166477,2.1666875447464378,2.2975417080388554,2.300180500640331,2.3713036268589143,2.5373071009625487,2.6525632503056467,2.756340444653708,2.925554723231578,3.133420310783836,3.065229308938985,2.952072989457492,2.840521923044514,2.4020794965234766,1.9378157484985516,1.7290229993457134,1.508910238488775,1.2389383358869894,1.133785873308917,1.0366158536524728,1.049405171960572,1.0628385008542056,0.9624551242829714,1.0089927453009735,1.1826527123526123,1.2249988944949028,1.2771695860730357,1.5106874995317763,1.6585351822107754,1.6955700670456522,1.8340116126432127,1.9739788878691649,2.062377503571262,2.2756505193089476,2.416632054025819,2.4112414653183327,2.3342426209440807,2.263884663365908,2.3129753879096393,2.4549779651453303,2.557112514828188,2.614724280399053,2.6078155862362595,2.516279697894462,2.4076028121397783,2.364847178754307,2.32151893682166,2.2105971298767275,2.1132981622494307,2.089952828246673,2.110956148872388,2.104308267726219,1.9802414002145243,1.7348772040738543,1.4830722805419898,1.3381567388110123,1.2760252308417293,1.3114875139580378,1.340508630464485,1.2742448206837584,1.1379865274894865,1.0046428562194325,0.920129361665114,0.9248692106256045,0.9819585545973333,1.0135953591459548,1.0187442615666826,1.033205461586333,1.1299350029300028,1.3135467036622483,1.5185177573289352,1.7043364075546141,1.783323122466164,1.7474736639515107,1.7131894647452601,1.7892543893524644,1.9020646725050125,2.009597383662246,2.101361309363552,2.1677549621267547,2.2086077510791022,2.189838230295507,2.2278535174918086,2.333703857095682,2.2885222449835094,2.196278435596588,2.174926690260941,2.15184573274701,2.1251524420259535,2.0930765348305704,2.0541933018258303,2.0075803589500465,1.9528934747884839,1.8903616417940727,1.820708180598495,1.7449849515397615,1.6643864864382867,1.580494428287459,1.49548489840259,1.4118389021508986,1.3319972025251527,1.2580363590847625,1.1913453304227113,1.1323097671027273,1.0800147683547492,1.031942500740705,1.0010506773481112,0.9898798715399763,0.9444534571746551,0.84064669429446,0.90669749130894,0.9395228712927541,0.8971785454708666,1.0363954156046138
1.6567742302684578,1.7762179318164235,1.675533143506893,1.6612516419319707,1.5696621357642468,1.7077116455531214,1.8664715316194678,1.798647254571736,1.760291075679995,1.5927049724127584,1.6501681660542247,1.8602564735361968,1.7988060859862196,1.6037862770586047,1.5114519720520356,1.7510179597010078,2.087918897759375,2.2024100607792447,2.1438320472900276,2.170211072911426,2.366204513603282,2.5607052903739245,2.764671544325318,2.9749683812282783,3.170105975342894,3.0347697430116662,2.8163623770792694,2.576912823812719,2.0692529331354055,1.5909339433025385,1.424195200576414,1.2764494663509773,1.0859504191405727,1.0104795916466378,0.8829444132148002,0.853657975485035,0.8721475896707173,0.8204891099295042,0.8563652199013724,0.9941110887100383,1.0234274264577237,1.0937504122854467,1.3457516416999307,1.476331019849833,1.4510006992361175,1.5940878648158534,1.8282004057651213,2.048147564610392,2.2954752587959257,2.4395968920688245,2.431277924776991,2.366420045661504,2.3427984679787714,2.4195724655442072,2.5284849382471815,2.5532092696950457,2.5177441358009753,2.4177815804353906,2.285834856565769,2.191011922018897,2.1653653971136735,2.136588651928853,2.0376735004892397,1.9153184027881136,1.8307152558311168,1.7900822585293448,1.7183844105416988,1.5142265412315612,1.2192972063770176,0.9708838133700549,0.8583521457041796,0.84171162553138,0.9472542468798735,1.063940293310557,1.0855909559539587,1.0266553024499518,0.9626901477054256,0.9140514371798303,0.89778496556824,0.9056434328058091,0.9096054172202755,0.9198812114055243,1.0119866586252635,1.2273635814997252,1.4976046837085277,1.721799857766079,1.8836902738440544,1.8790445223034575,1.7573249574388825,1.6906333155281268,1.7797074081040187,1.9148162411858758,2.0526827708207382,2.158176846075835,2.2057989394178565,2.208132466758771,2.109449595696731,2.0328204491327435,2.114105777644771,2.1332280324535193,2.0674131041502486,2.0305121312858736,1.9908530889469844,1.945938530071363,1.8941370794746455,1.8350517818918994,1.7696063400767046,1.6998383111780389,1.6284009198597975,1.5577831768709374,1.489230789221912,1.4217320622930743,1.3541917007494828,1.2876121839059276,1.2241026895231861,1.16583862622213,1.1143340221828961,1.0700136432919907,1.0320888185667576,0.9987434036814679,0.9676172861351495,0.9115206757960946,0.836719714779022,0.8092614211604482,0.7690336320837933,0.8755948429562883,0.922680012196025,0.8878435742441644,1.023497303661466
1.486067851295211,1.6293276878210068,1.546307636179499,1.5396155679780221,1.4445309254029028,1.569947777066262,1.687424168482822,1.5633926124945081,1.5334158224662902,1.4318560691367972,1.5282323460780558,1.7233406865720347,1.6226165260382417,1.4415473875837226,1.4142170474786429,1.6893661779615918,1.9838886305877979,1.9839109644426467,1.8880525698170392,2.0021842095684965,2.3061612997902423,2.6028499291581726,2.9081096870555396,3.1166516382060707,3.1622350442397615,2.898070175938733,2.5744571771081484,2.2299968714371494,1.7206089122075143,1.3886308861350964,1.346874152017923,1.2862532910737574,1.1528055995639768,1.0430937488874508,0.8174627109981614,0.7141175752239037,0.6299616875357963,0.44500030927623857,0.4856516045934118,0.7072928132621894,0.7833239843292084,0.8340234756907882,1.036624074499972,1.200810973346355,1.3425606600757127,1.6096253328863137,1.8521983109738436,2.0058149236624696,2.241860946618656,2.3593850222655686,2.331973302399964,2.2684054333702632,2.2726754012287382,2.340587590378771,2.3711475964993243,2.283005161299989,2.127199333607494,1.9240103786045017,1.771926773729062,1.7260385167920422,1.739092924283409,1.7413517844509696,1.6709455293937396,1.5263083362774796,1.3695345535148333,1.2565392366797243,1.1209546551974352,0.8784204277983185,0.6108732774258245,0.4359158750067872,0.38575610880238625,0.4175003810429113,0.5513845730360313,0.6922583417237911,0.7646120094781068,0.7922558025426684,0.8275059347557742,0.8670993926318533,0.8774374398477605,0.8511289378273877,0.8126103557618163,0.7976774514683262,0.9046807980825271,1.1608658090510602,1.460697851832881,1.6830990413895142,1.8231575373602713,1.790004525112468,1.6773109349271524,1.655351957353956,1.7780117920101717,1.9324603055715535,2.074411896149746,2.1479006043847746,2.136103356737777,2.083977448889367,1.9978643116634667,1.9973612902699707,2.0605037635901713,1.9637754528874831,1.837045188241828,1.7929180116978682,1.744651858047444,1.6881850112337218,1.6211244753657332,1.5437608971808658,1.459302661307116,1.3733162096615776,1.2923759661401855,1.2219345735896125,1.1633917970394738,1.111356683147919,1.0599218900152703,1.0089858503966194,0.9616555142693692,0.9215526290369748,0.8910122468749675,0.8701580782787773,0.8568630452551688,0.8475933104312013,0.839133992057468,0.8599419515350544,0.9184611262972117,0.9281639141523415,0.8683532707669381,0.9775674949811395,1.046550814152295,1.0238456289256619,1.1665430998150774
1.2411808372309985,1.4198500185930378,1.3653446394737385,1.375253379447868,1.28295401304317,1.3990109988972794,1.5259932921862236,1.4489530783858473,1.4403669666988717,1.32123293088528,1.413626074618909,1.6361825486921129,1.5527891446095472,1.326365192719538,1.2174425434029257,1.4499965624923965,1.739541225660739,1.750875072752843,1.6619633087664798,1.7864751959462206,2.1333884881483556,2.496390617016372,2.8468092139523957,3.0285012141992866,3.0340822414909754,2.734837226888032,2.3658582435509605,1.9975628584894471,1.5372261521335453,1.2665590575408276,1.2781873800311503,1.2667358720592155,1.1301602806703412,0.9355781241391729,0.5948239290042306,0.42495006000887187,0.3531398963496984,0.25954727129850874,0.35183848315286476,0.587000997042948,0.6708663705879822,0.7611026357561916,1.0345031621423608,1.2494878710345267,1.3791852649529426,1.6658448913034902,1.9913358565589403,2.2279509080158104,2.42837013145997,2.4913837231064755,2.4318847095087293,2.352259834735772,2.3482540941975203,2.3767495736927047,2.3259289574248276,2.145469288736915,1.9035984086805222,1.646577412571784,1.5100267820626145,1.5193683167078846,1.5620015655410713,1.583090293479615,1.5297777991107298,1.366374035434372,1.1558739645958596,0.9897996519797028,0.8140822189499418,0.5712481295085796,0.3622455457094701,0.2693136381274421,0.27423633464763025,0.33468382852558504,0.4437536575312941,0.5387678262282559,0.6100564964484945,0.7057727520407425,0.8346754419351928,0.9813839571354404,1.0628159598207405,1.0446906485141514,0.9781232640503731,0.9290701962919602,0.9966803687421367,1.217236955918291,1.4972971974931983,1.7170722572053905,1.8657255290728614,1.8872043588077065,1.878432149964435,1.9504068880293388,2.0991413987758762,2.2410295471181523,2.321018757918781,2.286240959802509,2.1658473442983084,2.048025014315214,1.8808593945524819,1.7744056327258149,1.828417545529407,1.813819673920084,1.7305701761044758,1.6874777365858806,1.6385698430275577,1.5773633792933957,1.4998669416053976,1.406702165258526,1.3036905704823973,1.2008873476715078,1.110068927165479,1.0406855709474718,0.9942551524327443,0.9591114934541833,0.9226924760615882,0.883912550602134,0.8481535214099708,0.8220706949128799,0.8101149970600525,0.8127574028565987,0.8264270811158315,0.8451534424500565,0.8639225654507083,0.8705719714314942,0.8788750937027446,0.9215937332744703,0.9397502705421245,1.1008751025865637,1.1911515438320672,1.1786425962019818,1.3174580370485751
1.2566220418291305,1.4773353886336043,1.4574959643262952,1.4890049811043158,1.4028026327661898,1.5109564339501642,1.6150523850302876,1.5120567015718989,1.5027382051887734,1.4077495277487746,1.522526879022207,1.7436895548099483,1.6162919098308275,1.3341582909600578,1.1851973961393707,1.3857930694675535,1.6337654372101944,1.6181724949934044,1.545416403494576,1.7121550302006756,2.0850401923200974,2.459023749166562,2.8046859228527827,2.9646949737406905,2.943700586656915,2.655116221237061,2.31489856899575,1.992465808732834,1.5963863541091607,1.3931919979596388,1.4304160285841518,1.4157172527014932,1.2360475146422245,0.9644840824834756,0.5534502598616524,0.3540200574093603,0.26854392813176003,0.1855531466851786,0.34362506093537465,0.6533745286189248,0.7757919642939423,0.8821389027542027,1.1743667610450899,1.4351566731105294,1.6396602986700193,1.9727167474508578,2.2889998165557657,2.458627557354831,2.5899680600185513,2.590753217251873,2.494035476802194,2.38467662533945,2.348878182487301,2.3381118556355536,2.2431317636774186,2.0236329642194906,1.75673564200808,1.5068767057844203,1.4052683234900838,1.4462862089382755,1.4918232732590482,1.5067238245398,1.4466104020372321,1.268461719656769,1.036126116551861,0.8499123186946779,0.6603415642800994,0.41913593191228915,0.2304599239319677,0.1654356721003596,0.1930025604625102,0.2627243636682827,0.33761456065901496,0.3819446852320364,0.43996729428638504,0.5787302940815932,0.7674554945525947,0.9877201753453734,1.1340379351007845,1.14523453050309,1.0724003409530203,1.0032559196897453,1.0333289731902915,1.2145387279153397,1.479120240701111,1.7143112955173907,1.897884117369454,2.000338256383438,2.094123052032064,2.2294880407552493,2.37122102060098,2.4662286590279523,2.4387626086419805,2.2593089993153495,2.01726943158077,1.8371890945087854,1.6547748571743768,1.5658845237440948,1.6205468613831855,1.5826841239457177,1.4918232732590482,1.4561064422074752,1.412807603064069,1.3525364264758228,1.269169508107579,1.1633683941429644,1.0436519046543455,0.9250113517307502,0.8250722324102537,0.7578115122759462,0.7248123674429776,0.7070484419405628,0.6842853129984925,0.654590683671534,0.6264504574934782,0.6105766639442844,0.6143963083621333,0.6392056327655932,0.6800063618752098,0.7280043103759758,0.7757919642939423,0.827630109331305,0.8991467754753291,0.976771266122557,1.0094732007995701,1.1847237692479708,1.2865438052168305,1.2754147666177638,1.4094397406243058
1.348528630725696,1.6112620439559435,1.6259347982043812,1.6819414764496254,1.6364745047983562,1.7537115137543728,1.7962256100216905,1.5880677183031136,1.5749981287627366,1.6084285697522005,1.7265173977331543,1.824018795442972,1.635386667893606,1.399765261655322,1.3304999475258001,1.4417625218590016,1.5340937440477584,1.4521793300977226,1.417184044157089,1.639257029636752,2.0215871914024786,2.4298514751415827,2.8066014466172304,2.9342257284284132,2.8881100888163127,2.6377929066417356,2.2938918837893043,1.9911616110553958,1.719836649771278,1.6140348231122232,1.6150494679553684,1.543258861957584,1.348420234873591,1.078780381583896,0.7239501066157734,0.5084396612666086,0.3608961333707868,0.20651710337377616,0.3834500284845736,0.8069406228737258,1.0446129482458535,1.1205910152899146,1.2998111260287082,1.632264270678564,2.0557014461332614,2.4448162352191316,2.674607519171646,2.722385560001811,2.787601079132088,2.733147179755394,2.5995055027634977,2.457290343693082,2.387911628276082,2.346465827826415,2.227458220691701,1.9926562721784709,1.723573555336878,1.4937451284020138,1.4217166150554348,1.4798036317980525,1.520666580789749,1.5247064975125637,1.4536944190323757,1.2650472834640372,1.023381548824906,0.8299182231195027,0.6360830366590794,0.3943691702837843,0.209482973000549,0.15279253902399845,0.19315133128338102,0.27183399085748944,0.3327980721847426,0.35551426273947945,0.41396687515575686,0.5840539558088342,0.809383209038318,1.0702701469933942,1.2529015116613715,1.281236187401644,1.2032723879036062,1.120301164118414,1.1284311182149251,1.2904827182205736,1.5542952834279715,1.8097363242721252,2.0252193474596223,2.183702660431994,2.3363632349644843,2.4961726319633315,2.615071810097362,2.660117082105648,2.5397476319152656,2.234332804967089,1.807696128703467,1.5715913830402457,1.5012710490988128,1.5603666444946873,1.5908794138906996,1.4647587516059657,1.35209783763203,1.3271135550305853,1.2929665412169757,1.2373826730920987,1.1520054591731166,1.037354403984247,0.9044290677764457,0.7729399931833263,0.6661694821853903,0.6024799247235558,0.5834405745099497,0.5826594614032204,0.5722953594045136,0.5497060616087549,0.5266723076707867,0.5181925034754628,0.534910657619403,0.5791715679602546,0.6381684800375613,0.6428554238665656,0.6820758939359515,0.8125872180539357,1.047558398348193,1.1916735676482602,1.1894343811621135,1.326507996796256,1.423898752837767,1.3656374408687368,1.4576659502374865
1.3169842775628608,1.6150561971168294,1.6577906154119808,1.7292581719367714,1.6842806887717743,1.7891743935450966,1.8329824528662018,1.6459742244608269,1.635212438964351,1.706645570690239,1.7085458958313873,1.6653445963805862,1.6127088136700496,1.5508453782561102,1.5059565343903576,1.387472111272088,1.3190460528562042,1.3136692208088478,1.3222639842748447,1.4780822261100348,1.7988811260810829,2.2472049284245945,2.648247636854404,2.7543616734012426,2.801846481904887,2.656565079311621,2.2821005697378802,2.002567158523066,1.8804448653614128,1.771573865673871,1.6258222753542373,1.46547197642367,1.3140685948841269,1.1359872041182733,0.8292754721799559,0.5369656043055495,0.43355556361434333,0.4229372783147369,0.5505228425860851,0.9059639795611169,1.2258984806216393,1.3582289324374288,1.5605460114536296,1.97946282297406,2.373106975833294,2.632706323548823,2.8412861966733014,2.9966504687242166,3.0571761932477273,2.97809415959834,2.8159907152157215,2.6437418831561663,2.5461760694709348,2.4822923939326698,2.349505320446315,2.110323127040668,1.8423934379272644,1.6101830908702648,1.5306260049405969,1.5794385797610824,1.6122881250587144,1.6089260636202107,1.5307837921748537,1.335789996594315,1.0892119740886843,0.8929470631121755,0.6990268836961567,0.4604047189520965,0.28204746571492234,0.23534827852469997,0.28893467959876695,0.3888909035858342,0.49204463946710875,0.5695141936578416,0.6757785921573247,0.8748815518414268,1.1147380370591828,1.3731595163304153,1.5406969077613617,1.551687153261724,1.4610637789923269,1.370793569679605,1.385942768448626,1.5681780076020297,1.8560211459423852,2.131428694457153,2.3580264940677633,2.505046970541455,2.6263400727266557,2.748558418038449,2.833393254913962,2.847188035908927,2.704933164841318,2.3763420450670836,1.8932869909091017,1.691532470723341,1.6583409812628984,1.5975781781050589,1.564241448147369,1.5369955374720483,1.5143358652438679,1.5001883170751709,1.4757505550895234,1.4264034925872817,1.3418953018055435,1.222551336043517,1.0813507886676679,0.9418539456388504,0.8319853684825834,0.7736868969569141,0.7684126929089821,0.7834720921785067,0.7845608240948797,0.7684427918183739,0.7497300214013853,0.7471210956692509,0.774079906505097,0.83394650469122,0.913019190441435,0.9406120009920707,1.0024304537848152,1.0761291582654358,1.2441191935375122,1.4625859948713844,1.500094407151925,1.6095865159007434,1.720697733823941,1.637600263677054,1.6337518297186686
1.4534666882972191,1.7752406205599551,1.8349103617683389,1.905714489891772,1.7843393252925046,1.8366261280544178,1.9014059505543868,1.778010358334146,1.7496380175214106,1.7259395019876882,1.6837769463966932,1.6917281799315456,1.7484191277110648,1.7118837090846266,1.5867849014588888,1.4044635422982161,1.3462650800342597,1.3760870993488756,1.3358170458344734,1.4391280054241682,1.743696532585749,2.1640850498385564,2.5309100882594167,2.6881200068710376,2.8056710323123726,2.7047080859924515,2.387462829670073,2.1735213396958275,2.033864745379469,1.8886497259225796,1.7305226576170163,1.5768034003546765,1.4516426546097771,1.2999772004076215,0.8888360426882091,0.5489863396696399,0.5176470104656029,0.6140889547411186,0.7342456573538829,0.997991991701187,1.2821836400759155,1.5068203532007571,1.877710838965332,2.302128775200461,2.5200244265246177,2.678191609789783,2.886165526896989,3.070303428166334,3.1368412440979783,3.053295688039522,2.871492507459922,2.6753064901005414,2.557685587455464,2.4812842130623567,2.3452427115722947,2.111463902225483,1.8491176643935803,1.6042599702471618,1.498556677738071,1.5251379262633735,1.549463314567481,1.5418980796564323,1.4600602057744425,1.2624197282307152,1.014766631023105,0.8194452611885901,0.6288192549220502,0.3960259362434824,0.22605089778615892,0.190132026147864,0.2565730482299223,0.38265088255107216,0.5532366504209902,0.7186186218239766,0.8890763035860861,1.1075520218876087,1.343460511391078,1.5725023722780294,1.6965787451446448,1.6732066602389364,1.5684465110888957,1.4766443402150005,1.51459167282512,1.7358816060062041,2.0570026770129126,2.347440528632317,2.5696981682692126,2.6668311278147536,2.708856962093208,2.763135638083288,2.8123606143704523,2.8103576446555905,2.691214294091405,2.4228990580035816,2.1142277644141125,1.9896291356912537,1.8737265704188846,1.6524704011369167,1.6223439121276262,1.6431989094382822,1.6474155909566168,1.6414818627883536,1.6247693936256478,1.5812325145391324,1.4994034250304784,1.3794712708893226,1.235701178292746,1.0941706699652596,0.985833358250015,0.934922378956805,0.9426643620890844,0.9719370763072988,0.983908619180709,0.9748398973375261,0.9612019754166163,0.9641801100174806,0.9991618713380351,1.0702045128077158,1.1759747985942086,1.358097697214651,1.5056516006155825,1.5396129823888896,1.6090913755818155,1.8130428369799974,1.8482169263537365,1.9363338951575428,2.0474005779653575,1.9998086332555955,1.9611133444045166
1.558522124985655,1.8908075523301693,1.9548410532284628,2.0205516878162335,1.8839696769979295,1.9135887980063517,1.973661457080248,1.8673019884572672,1.8015632190133883,1.638784248034107,1.669769683012739,1.868101470020127,1.8870671464818451,1.6850137695880751,1.4370105073701556,1.4012392463524797,1.4927788141865044,1.465514108267103,1.3208203636757079,1.3701659344919115,1.6861690472760387,2.073604595665903,2.4521319607788667,2.7007734160067725,2.876281681505407,2.7703431998309687,2.5284561652809345,2.3110337430652343,2.0121348659202978,1.7789110300768325,1.7249581548917723,1.6661365656468152,1.5173409164905758,1.3059015143795552,0.8809271233139722,0.6536932853509868,0.7059972342151938,0.8622832356433672,1.0644289033594958,1.3327100295599135,1.514765570268589,1.751071560952645,2.2078542175897895,2.5531975350982123,2.630049929052097,2.8088796158318408,3.084091513148417,3.2891020799208253,3.339383567705939,3.241610509107141,3.043277789795979,2.83045436823019,2.7012056734720478,2.6211914354945565,2.4900838347442584,2.2681546975215405,2.0192938484260026,1.780455455503569,1.6729333502081698,1.6951330361850547,1.7168635371800756,1.7076586078273208,1.6248405801982457,1.4274203915337735,1.1815899689218816,0.9899529973044239,0.8049845252490403,0.5797938330782109,0.4192050135501445,0.3941734610755799,0.47261890942104484,0.6149900657024717,0.8137348881431048,1.010136304966393,1.1985294892738825,1.4153633584760883,1.639630597543571,1.8483436865184002,1.9492814979285784,1.9092308911123557,1.7976593523443967,1.7041869240393028,1.7493120509734976,1.9835757245798633,2.3152202759513094,2.608854263798908,2.826198621111945,2.9005860867592443,2.9077446549077166,2.929844348197178,2.9576195422274107,2.9416972854562666,2.825819732858257,2.583037554091022,2.334556305943613,2.1709300490075214,1.939164427424933,1.6911643889062846,1.7535875877931817,1.8685977871135961,1.8854321384204424,1.8836841662184427,1.8713354722840425,1.831950363583555,1.753645896142984,1.6365993920683275,1.4956417243280666,1.357924860525698,1.2556625230722394,1.2139614785671566,1.2337175010506443,1.2754947872865654,1.2981095431907084,1.2973778877632884,1.290468795817551,1.299604146303771,1.3410018813144313,1.4190537234372982,1.5323013009557465,1.722487641049688,1.8773025064866795,1.9085227758372785,1.8887643578510387,2.000903000430335,2.046538300563864,2.1511797778024255,2.1845332643666104,2.0996959910705684,2.0994445922502734
1.900818524592566,2.233973606969104,2.2931959293810635,2.3492148726003994,2.2271352540901534,2.2484065643997657,2.2365318153759417,2.017683705942141,1.9213200275325464,1.7858936538571055,1.900818524592566,2.1287303007113088,1.9920883873037496,1.6721820542479142,1.4521187013474168,1.553230484785366,1.6874879629223867,1.564193316411205,1.4104141430929997,1.5356587215932427,1.900818524592566,2.282740403602508,2.671260374593524,2.9156183041942962,3.0080934906600234,2.8416235166093937,2.6118627624977933,2.373813007409437,2.0306620871684307,1.853187642733636,1.900818524592566,1.8919564240553135,1.7150893589548863,1.456222661124136,1.084304592211821,0.9600135325757381,0.9829933869248614,1.0264924103345865,1.3060835663733659,1.711649083445116,1.900818524592566,2.067721783714408,2.419128042550576,2.720531626296449,2.92677081198703,3.210066852064457,3.4258320110917797,3.458783819754471,3.441094279662492,3.3036939516374173,3.0872524290118215,2.8632427544002583,2.7280953363728813,2.6498206695044946,2.527824883749592,2.3202414237500153,2.092622531897717,1.8905645639258073,1.8244311886225062,1.8735358479999773,1.900818524592566,1.8914734627313514,1.8092450871983305,1.6136718793248537,1.3712701799430813,1.1847871493303026,1.0066842119883426,0.7899210155557661,0.6390601768025849,0.6247109526815311,0.7143846201733101,0.8573941517819051,1.0179596347106192,1.1513324104327063,1.2876318078644737,1.4813956254351166,1.695194957729927,1.9115565871015698,2.0327880381099925,2.009101447777431,1.900818524592566,1.801675891032136,1.8238235005920005,2.025518737134622,2.332413449226952,2.616849899854829,2.837931030139152,2.9481898986601545,3.0072204896933443,3.0618702971697145,3.0872524290118215,3.050157710992526,2.884059465102602,2.578392178579614,2.245056270706674,2.0236329642194906,1.8514621473397304,1.811742161339038,1.9317230065986224,1.9516601073364235,1.900818524592566,1.899940325902861,1.889106097942912,1.8522453032276174,1.7776575745861252,1.6656172765883588,1.5310208708091826,1.401062564428406,1.307943069039937,1.2766236289830752,1.307601572382938,1.3606775847919095,1.39389806268436,1.4026632098444913,1.4039686671679175,1.4199884139087988,1.46694470147484,1.5492581580143683,1.6589951021649139,1.78057998642632,1.900818524592566,2.0184467613606643,2.124361467217083,2.1849598865735196,2.143762252957732,2.1974270006973797,2.1512788257553583,1.9941149919551715,2.0116789320827393
2.233974137346362,2.565056372804296,2.61708114433932,2.658643495191434,2.5152485119105825,2.5104807518468895,2.463138150745548,2.2028460308853264,2.084415358187298,1.9473661481941682,2.0570927748496164,2.261548053207181,2.0832735388222563,1.7369159742536315,1.5226270208782344,1.6441577652236008,1.7943354283456014,1.693805286442503,1.5814077710743248,1.7477807855324752,2.1246080926420565,2.4987677678867577,2.858691321960675,3.0594009932507507,3.0998955620881827,2.9052864226140134,2.667356797974595,2.443304660033813,2.1313180445017017,1.9968235788889432,2.067538438926031,2.066002466386844,1.8834488641407494,1.6151811341096687,1.246867210705559,1.144714097818671,1.1823569607341164,1.2376757065271473,1.5602172438508226,2.0092036034096097,2.2120971693566847,2.3699956502435127,2.6989747078334,2.986469612068151,3.2004463389814752,3.4715157910215484,3.6377295265594034,3.5913375603958815,3.5181327697367797,3.3429446532105094,3.1101980077306464,2.876751927241787,2.737059308707608,2.661167162779344,2.5481362775193697,2.354122486517313,2.146694874560143,1.9805565437515162,1.9555857319037102,2.0322581663678103,2.066492369230349,2.0587315245568316,1.9795153386097473,1.789026890657358,1.5538252365830632,1.3763364429572962,1.2085293546906533,1.00284825846981,0.8634214915362066,0.860563553681438,0.9616459674787251,1.1050349177182666,1.226278495927001,1.2945006574357598,1.3759125057852557,1.54363539666219,1.744327648374198,1.9664232370409112,2.1069446570557444,2.0994640007430587,1.9948372911962746,1.8903920411124584,1.889521886779969,2.058189595019174,2.33969148485279,2.614419512367171,2.839135848377871,2.9857401444469205,3.097715711557776,3.186488931059774,3.2113890825686675,3.155160209400897,2.94044320842971,2.5745832743012396,2.2046315790729842,1.9844823547795576,1.8402364764903982,1.8422401340382666,1.9701325837069565,1.9633995687237327,1.8979236460135718,1.8976197222345517,1.8888728728308481,1.8564194758374375,1.7887436940630166,1.6858454508514975,1.5620491337513989,1.4438416007103874,1.3627416141885993,1.3432142837490486,1.385607105941465,1.4499430606864951,1.494221374031125,1.513418345736095,1.523971626673017,1.5475354595317843,1.5999780357518028,1.6856134605239876,1.7966898558653392,1.918092956429243,2.03732153716854,2.1673355994585646,2.2911687280552266,2.3276335899320606,2.234404836828442,2.237364242482383,2.1486426353173047,1.955705965941957,1.9504078203331128
2.2931958630839064,2.6178813510273375,2.6608483397501246,2.6894674302950032,2.5292516648707872,2.50465979514311,2.457013155278616,2.2167587545230405,2.0778872428557023,1.8805836957522681,1.9520252099249762,2.165199239863314,2.0340535099604518,1.7112144061336008,1.4871287052569602,1.6186243101200688,1.816471071268582,1.7700641468089553,1.6552580308564206,1.7692809702032068,2.1129149481062317,2.476754260901722,2.8311372289498737,3.0325112640527596,3.109014868662348,2.927000332745432,2.6825503163932383,2.4514695527321955,2.1304316183606793,1.9562936363745453,2.016139918625543,2.0294950997450676,1.870912796829776,1.6327491515124073,1.2924184626179833,1.2111661252288328,1.3060717654793752,1.4488864828913888,1.7711041088790258,2.173253499180534,2.353618495527892,2.5311180624417124,2.8930143547267853,3.158625959593341,3.2635669342397833,3.462375004168434,3.6430811656870046,3.6631225311352997,3.5908445747345645,3.4118067148810534,3.17275176229446,2.932641292667276,2.7890847432142043,2.7133216115539502,2.604493833469364,2.418040470834455,2.2182850145286905,2.0534931872709725,2.0257220870902,2.102173250648403,2.142224755583928,2.14300097927531,2.076477897886864,1.903859460211529,1.6905615985782707,1.5368508107777696,1.3924090616810851,1.2078983383479398,1.086542253863351,1.0987447097354657,1.2128195100335113,1.371004096302455,1.5139710982846737,1.6014046842786833,1.6853216867349268,1.8350891734885888,2.009717331794002,2.2010487149522566,2.3129406150506613,2.287826224278112,2.1782160568665194,2.073810713527796,2.079163280815598,2.257010410576306,2.543813172489358,2.817075601896974,3.0346038675242246,3.15975314386092,3.2420320264329416,3.3071711049409083,3.321520992033535,3.2633053256572717,3.0619587375774873,2.7176641416510368,2.3619201924102615,2.1414558743027112,1.9503381503079869,1.8650102366125654,1.9902087800242423,2.0661357402472076,2.0442724626205027,2.046680242777538,2.0452825329597975,2.026767651270058,1.9792936574901898,1.9009721395246475,1.803386581442113,1.7101381546570802,1.6504200455289098,1.647630261151795,1.703006188242955,1.7795009670434843,1.8368213483210876,1.8694696050903752,1.89238616274656,1.9255680137398206,1.9836698168202915,2.070587826396651,2.1790379261506683,2.2950972324052814,2.407757284516173,2.4869544100305476,2.510884766723176,2.5164387447747067,2.4296109490550766,2.415056535232331,2.289742974539969,2.067155804882958,2.0383111382605335
2.349214806303242,2.6617265781922264,2.6938827546707507,2.7133203519079627,2.544929881806091,2.511996503753115,2.427699568862957,2.122088154269242,1.9668936940994801,1.8023047858658174,1.8781005253685077,2.0507144247962508,1.888539883963732,1.617701122205351,1.5038657872392955,1.7071563737125672,1.908938918431823,1.8089223360625442,1.6654498099691433,1.7960610273288153,2.1381951646433546,2.4825016940581106,2.8374446078964026,3.0488940871753254,3.0858083443325843,2.881569542767733,2.641462321701254,2.40309490378393,2.0723404083228654,1.9445102945562807,2.0403764770260793,2.073004705838519,1.9526514114366442,1.7616688632019817,1.4563819068958523,1.388417309843013,1.429705787138524,1.4454497708538205,1.7290237949116003,2.15918305460572,2.3607472299556016,2.509630093022204,2.8087386680755255,3.0590282706326866,3.2416463095720567,3.463599114879913,3.5681635216731706,3.4857096146060065,3.4241501848066407,3.26203666325612,3.024490103591297,2.7813241968778946,2.634120707101612,2.5539276656910155,2.4406485307257157,2.2510435338294172,2.0452607211950617,1.8587849998438701,1.803791839390098,1.86794024776441,1.9184720736153027,1.9375381540139978,1.8959625452842732,1.7560243066593573,1.5805601619188732,1.4657803907992009,1.3574595207789544,1.2035762940724442,1.1064209260877524,1.1371877130417714,1.2661287226931126,1.4471892756657676,1.644136467261834,1.7952017747351212,1.911892947800668,2.048039798581281,2.1896768961633373,2.3306166636711403,2.387818381324409,2.325946526171499,2.2051347081993606,2.1015878301755886,2.125646703907548,2.331319214646527,2.636187852464693,2.9099606373888256,3.113789192144609,3.187948794462437,3.1992394655308813,3.213206685431856,3.21481797154168,3.166723759568586,3.0123018353108337,2.7298662660373654,2.40850733740473,2.1774159993471054,2.015629861446234,2.013785308788623,2.1240631797323224,2.089297994650217,2.0164243251430047,2.024705121846551,2.0368338469926583,2.0425424051534637,2.0291477192153624,1.9912892910931161,1.9356884633267,1.880930125332124,1.8522636924016098,1.871430820026886,1.9415112639201655,2.031097386015795,2.1037560621291878,2.1534767091125375,2.192454448714939,2.2375130464518325,2.3009608844783305,2.3858818082125337,2.485875291201976,2.5892082282992996,2.68743482575085,2.8043198299504435,2.9126978481202404,2.8970337524794307,2.728945000740208,2.6602205719681167,2.511928416572619,2.2726475895712714,2.238370467586557
2.2271357844674116,2.52256201651555,2.5434139973055507,2.5592417143304553,2.39363665299332,2.3664809727490175,2.3077073494973317,2.042397197804795,1.8771307367676011,1.6513632717594064,1.6796680143331801,1.8517694305200156,1.7349332583203099,1.4943316593522118,1.3827103511011263,1.6082054466694728,1.8651237622072128,1.8183435847522638,1.6618915089451771,1.7211060911640277,2.0060225663589795,2.3160191235476035,2.647303233849366,2.8526470101341173,2.933197989896711,2.762988392097034,2.5472346361807587,2.3349451056223107,2.0224503306670165,1.870734165354922,1.9606150259656132,2.0093479074595106,1.9090067362801182,1.7370421045953013,1.4422739049814557,1.373926143508285,1.4508513648894101,1.5356286226838507,1.8062201219430132,2.1835745080270277,2.3615724306719024,2.5296271719694556,2.8598527155613946,3.0860756544706196,3.1590242729141043,3.311213242618491,3.4363824081023613,3.429269518695235,3.378561872783313,3.2216927215599616,2.9856178261917927,2.7422969830218946,2.590711781528591,2.5001961401397264,2.372138871594539,2.16682711683674,1.9467843160549902,1.7465981105442778,1.684637284606337,1.7563307321201704,1.8290252335599126,1.8755636957230974,1.8687274394917448,1.7713174614182037,1.642559274465126,1.5737283724584903,1.5063367154386125,1.3859583814291585,1.3147119424980889,1.3654147155689527,1.5104901991917978,1.7078710404934418,1.9273815496867692,2.0985003052652607,2.2186151743717994,2.33748518175664,2.452994055863178,2.5618640320883546,2.587568036628914,2.5036488960893495,2.3723920935866585,2.262488743571413,2.283651757474656,2.487304459020832,2.786599262788871,3.05093219438353,3.2442052472476237,3.2985028842246775,3.2857178752318,3.2841030090754844,3.2845608572434584,3.2441583088602903,3.106768455786061,2.838760076090573,2.512725242105616,2.253290675974434,2.012798483890089,1.894722562618991,1.9826242194918549,2.0235008588465235,1.9975938358361727,2.0151084260173118,2.0451369278281852,2.0807901633316654,2.108319991582913,2.118301807598622,2.1118206969515176,2.101666491752667,2.108535722532607,2.1522387091466144,2.237916696693754,2.340885894437821,2.4301558785390998,2.4992221023053975,2.556500592066763,2.6143797340728208,2.6818948363994997,2.761034614872852,2.8466870282915826,2.930196651290809,3.006573893518677,3.0587785955384796,3.0609263582447777,3.0199535217149376,2.8765134563671557,2.818430848385495,2.666179691947607,2.427543803691996,2.391325103160034
2.2484065643997657,2.524163159160315,2.5347677872455274,2.553056322153268,2.400789453289111,2.392639775788318,2.343915210444083,2.0731922107735135,1.9049456552257442,1.677276775316879,1.6858932511018754,1.8196835580331834,1.6576381485245932,1.3996550426313925,1.3103373245768932,1.5723636786250605,1.8533046157804605,1.8241567515400663,1.6890501725615557,1.7566409033703685,2.0132053246827035,2.275789776487753,2.5490536312842496,2.7008041778877367,2.743872402369646,2.583218014953059,2.4125938610290922,2.270912460371703,2.035942282821949,1.9536986579068676,2.0746125444961656,2.132432085357855,2.019602063910062,1.8196436388573738,1.499344089074739,1.4177028194125767,1.4733305099583967,1.5392472541209152,1.8317637992394789,2.2426295627112434,2.4326282321272976,2.5910526152140174,2.8963571236925287,3.1060836061516603,3.1872030840376797,3.333008035281756,3.4203757550500367,3.349931047641601,3.260839601784799,3.081352644988071,2.8416235166093937,2.599409106696855,2.441900784580448,2.335468322787334,2.183553326085286,1.9517347413611987,1.714181137623418,1.5240762435871589,1.4961696817398336,1.6088261869528122,1.7165968568650343,1.7970477362073238,1.8297730074836893,1.777029781942683,1.694118159301859,1.6678394910022494,1.6365484592772694,1.5448810539497757,1.4961729303005389,1.5655863522793592,1.7270245046889658,1.9270627763804178,2.109022177923935,2.217827265806452,2.2870003274416595,2.383934229772555,2.489166812465165,2.603893247521829,2.645317368801075,2.5702346448656863,2.4326282321272976,2.3055500731489684,2.2867063989949883,2.43608509850067,2.6885960204600985,2.926298312147303,3.1140378064842995,3.2043072202311342,3.251698151960112,3.2965479136516653,3.3120259131720715,3.26909929941805,3.090643263416572,2.7531402808732106,2.362597749357365,2.0618993353245907,1.8005308645421123,1.6798257684188584,1.745807434072615,1.7503017680855164,1.7165968568650343,1.7464306936479301,1.7959702250848155,1.8611044431824413,1.9271609127474385,1.9812955664505356,2.0198594046130753,2.050756457193948,2.0907850564616424,2.15796161235482,2.2588342122236975,2.374434642704399,2.4797442626937345,2.5678668418944732,2.6429625600726827,2.7123890757400604,2.7815047903342456,2.851148561785934,2.9178012706910943,2.9763992064760654,3.0258450848911895,3.0671006124995466,3.077328142354317,3.0235355571211997,2.8615655026189697,2.8034205090123363,2.6666981357173083,2.4458714539225146,2.4248184933003074
2.236531185552948,2.493012644260128,2.495662077555343,2.5213418173363484,2.389749849555176,2.4094613203489907,2.379931074823436,2.111978848820139,1.9470160204760096,1.7214408586595655,1.7126734573960876,1.809344284319867,1.5996702511992658,1.3169027983565995,1.2380122971945098,1.5219891427797456,1.8120832602130936,1.7878436107076008,1.665346651592461,1.737190593653254,1.9646857584358326,2.180219175749985,2.397539003114839,2.5001004070446564,2.512110402269272,2.3685374111212023,2.2504521963353183,2.185461623459594,2.0318819300004116,2.020499652834936,2.17203697949356,2.238162725444312,2.1120943550423594,1.8834528274676814,1.5370176144254128,1.4415838841687891,1.4755319070649102,1.5223257002985295,1.8366160757479497,2.2809313530726048,2.482920957280565,2.632022468371781,2.9141685842566925,3.111116355952885,3.2057836579231105,3.35141994919914,3.40697312174021,3.277921594727732,3.153198078734902,2.951772597037989,2.707802306915662,2.46598322695181,2.3007576173941997,2.1748953980027186,1.9941417511452668,1.7301939397370774,1.469970304840296,1.2863337758226598,1.291184009549973,1.4459891313766347,1.5917855302874253,1.7087811844424705,1.780428928353524,1.7671858474397661,1.7208684158552834,1.7253850754358888,1.718086653434196,1.6448195931701464,1.6116958925529927,1.6965972254772286,1.873493258291802,2.075532782187386,2.221664976199652,2.2737314486465867,2.3010648384209,2.387172282378421,2.4931213715980194,2.6224317227124048,2.6844405146436165,2.6187092699270855,2.4721011949200733,2.3241034320513476,2.259477327797609,2.34608203358309,2.541001112267407,2.7401046023287674,2.910693486165076,3.0271849504392287,3.128039898689988,3.21616168232484,3.2464523230954834,3.202770054343117,2.987938558181358,2.589032474535428,2.1449400716791605,1.8155934377880405,1.5460811650903301,1.4340796094938324,1.4869434047024441,1.4609555157345364,1.4232167871297063,1.4679658434393958,1.5361584032674422,1.6251125808601565,1.7196572165151787,1.805150276429312,1.875440573614938,1.935795384067056,2.000783184892893,2.0871061774829265,2.2013995263598494,2.327672870997732,2.4462668501683584,2.5500868061828466,2.6392793552044562,2.7164393016708277,2.7835146549534615,2.840422543605795,2.8853820270925983,2.916938015406531,2.9377143511401087,2.967092544135509,2.9879535413388965,2.9286756619091605,2.7597554112236975,2.7156168191379737,2.6086090969113944,2.417521662430389,2.419549758767849
2.017683954556481,2.2581486664691455,2.255701074869181,2.291134618167821,2.182238587159845,2.2318000878172146,2.2527202552334478,2.0474756263473655,1.8897349565203354,1.6142089525957426,1.564648081761367,1.6645105615680815,1.4941401931620715,1.2221277635058414,1.1138741188030472,1.3811386443941809,1.6865952219771363,1.6815196607866172,1.5226296727645245,1.5120219950100782,1.680374526563713,1.8625661629055075,2.061791436701165,2.1700432085092665,2.242881558205954,2.1534505383097127,2.0794732034514567,2.056706743077234,1.9315364422545462,1.899729288843695,2.043891452857782,2.12373431268378,2.01538506748023,1.8036520849826132,1.4658875933024755,1.3685434441625122,1.4369591602218648,1.5519834684060565,1.852828419874217,2.244149193001168,2.422542710783359,2.5916309253167165,2.909559539587458,3.092275897211031,3.09148059651265,3.183746217664307,3.2756452155363673,3.234286529551328,3.1275050132252886,2.9329231881799065,2.688735575976111,2.444879283815677,2.2706268190696877,2.125324632317623,1.916862330986171,1.6226699615469857,1.3349836905678305,1.1286524181258284,1.123808681519926,1.2901173545869644,1.4667736216605542,1.6190947547479206,1.72458442124206,1.7408456553782277,1.717240254201864,1.7369415152334624,1.7387663776353701,1.67187347412949,1.6463414278405497,1.7426417448138882,1.9330912908374742,2.1492568950535227,2.321903592928029,2.4081220846239457,2.462313480406505,2.5598958020838922,2.6681428833681182,2.7877721920949523,2.8303815076543715,2.7431207914978932,2.5781552325395993,2.4129542855244863,2.329067763186289,2.389899846873456,2.549256500585437,2.7058390491979933,2.8338332028494784,2.90361049677587,2.9619302496890167,3.0257447109951117,3.054469412911491,3.0236669580868707,2.839178477449983,2.477377653071352,2.0591578152779544,1.7365615496509688,1.4237619155052013,1.2271233206018481,1.282289185150259,1.3486874455658904,1.3688213618457075,1.4305508438534216,1.5151066028454871,1.6195381169870355,1.7287185462253283,1.8282585483720302,1.9123284362164663,1.9864116766398585,2.0649790040217844,2.164076911862504,2.2888495871974355,2.422679846453132,2.5497365583010905,2.662998688045555,2.7595453818295272,2.838322780041347,2.898783665945066,2.940413905086205,2.9631478632790853,2.968651124005319,2.962502924533349,2.924322457969757,2.8454369953916183,2.7801912447576353,2.666691174515797,2.670681070033466,2.5975511288649007,2.4389254344601885,2.460087818540438
1.9213198638614395,2.1510501337114216,2.1461625415359977,2.1904727603875545,2.1003833434226555,2.174358125840358,2.1927593824897142,1.9531578305594492,1.8034813863769816,1.5771244774872424,1.5424204349584114,1.6082499983591454,1.4003815600291256,1.1559183173940604,1.1172274290167938,1.4056337534208505,1.6629967322794164,1.5596048570092969,1.3412686610752087,1.332696637534149,1.4970130147286427,1.6609451833225788,1.8680407646137331,2.0018402019066666,2.057585395876569,1.972152832118427,1.9281163873777372,1.9187359404447333,1.7964499596018273,1.8145931877151633,1.9919364922293434,2.0868884907670933,2.012769570042383,1.8445391412781151,1.5385951221336176,1.4518752913345705,1.4646352400020075,1.4511889168655525,1.7125833098365157,2.1315827856248935,2.331123737478373,2.4726368759506596,2.7337372244549263,2.91367235003467,3.008622475677728,3.1447931903272712,3.18034517349734,3.0518148747351677,2.9642497883297514,2.788078352367137,2.5428974098562525,2.2936716114843385,2.110265514811017,1.9495580067971823,1.72103513663148,1.406308094955827,1.097253487777423,0.8596665531438344,0.8264113686895631,0.9881017817825092,1.1891857005252657,1.3726505862027794,1.5044819530187847,1.5388858020195837,1.5240746856039635,1.544566440790042,1.5426707398756119,1.472249601106579,1.4477665581625292,1.5516393198627676,1.7529791124839338,1.9876688116227934,2.2172900599412486,2.382934965869892,2.4976095565495857,2.616086222900457,2.7254054618117434,2.8208829813407315,2.8217251541292887,2.695650568368844,2.5065262590111925,2.3253542273686203,2.2358561147492413,2.290212623601934,2.4249870869711967,2.5354359299963014,2.604787198390199,2.586043467200774,2.547687777250568,2.5483987479649257,2.564385445572918,2.552031566993642,2.434396907688435,2.1674991711197915,1.827642697504038,1.5446888584909058,1.3119425776454074,1.2442349483740722,1.3203955314920448,1.3010814458587912,1.2871379603401123,1.367426668548622,1.465896841755912,1.5777413393868827,1.6883478370519298,1.785440570797309,1.866088648962055,1.9386085091870955,2.019345609931526,2.1243318821106603,2.25583734867591,2.3931805948485914,2.5223553682763993,2.6367382514641893,2.7317953144218925,2.804548886628745,2.8533366994609977,2.8778801722638816,2.879662902822356,2.8625989427061955,2.8340197630499824,2.828504767726915,2.841453464401045,2.7794353908678184,2.624318208321977,2.6227657940877918,2.5758661905912,2.4419258780544677,2.484972920594635
1.7858934135299105,2.0106779113054087,2.005194523152061,2.0548889247482847,1.975512208522062,2.063351110474069,2.116970328640975,1.9302930908649611,1.786932870084157,1.5195511642675825,1.4600852329513048,1.544259816437757,1.3802789028589522,1.1382170427052476,1.0523445890216019,1.3031278402116524,1.558738485758343,1.466731688708593,1.2164407933568657,1.1415092932371662,1.2701863076083346,1.425018544972312,1.6335614905802016,1.7827578314677204,1.8958108703371468,1.8475810951799778,1.820684446216199,1.822805971822515,1.7018419438644732,1.6817614630934001,1.843213898396822,1.9467356207929896,1.8905175198773794,1.746806631678121,1.463952545025217,1.3940902912918087,1.4610180671024025,1.5329426928035697,1.792787746071015,2.164447628991561,2.3413816977283215,2.5034451649251177,2.8028848942789066,2.972313180080383,2.9745437479360866,3.0570660073723763,3.124640180466166,3.075792832786702,2.996057705841237,2.81662763200543,2.5625514673118883,2.3051019375145314,2.114031093897128,1.9451551297127085,1.7087729138721033,1.3884396519850064,1.0763489996388793,0.8353186569548403,0.8027745758092414,0.9764100792098546,1.2015334134689173,1.4107294523728846,1.5614958176769833,1.604679399212509,1.588540682222941,1.600394116710709,1.5871244754983276,1.507667862910473,1.4804704486056812,1.5889410839041573,1.7979793604353018,2.0401159789209515,2.2897818578226965,2.4842543257071936,2.6218533463125486,2.7490276030203127,2.8585088721839207,2.942203331657562,2.9210556655462225,2.7701007511269027,2.5586414598687064,2.3564184233700662,2.2444302929479116,2.2691826349447144,2.3622176677548463,2.420507487501494,2.4342999149473767,2.354035239458371,2.2588942111510093,2.22396273622423,2.2307959510734934,2.2277013323673396,2.1475863890079845,1.9405117389724458,1.664715486081144,1.4379035632269028,1.2151688160978513,1.1114202621217224,1.2261211727728447,1.319184481320544,1.3701020240323216,1.4700824133332069,1.5808582007892942,1.694647442656771,1.7976082786718797,1.880768602667413,1.9457795246268415,2.005519238341131,2.079533600161712,2.1843099755409896,2.3184010809618893,2.4546653740488926,2.5790324765243424,2.68560495791357,2.7698307228054198,2.8286953720540113,2.860912144134263,2.8671261766833824,2.8501284474273154,2.8150701128901363,2.769694415850112,2.7061659604803974,2.624146100901754,2.5528668448778453,2.440759246978325,2.4672595798232027,2.43015249738408,2.3056059948011094,2.350769540937931
1.900818524592566,2.1247991113263853,2.1195495035237935,2.1709816779187308,2.0948240781728344,2.186999352873448,2.237741937387241,2.0406238648683606,1.9015778303371051,1.6530167560098208,1.604210048487752,1.6775299144375517,1.4735883727515235,1.1914635382540895,1.0836647583471932,1.3180292533554483,1.5505068981197663,1.447094735919528,1.2143870400195498,1.1692437808128469,1.307601572382938,1.455642130066669,1.64111298540541,1.7582045052498398,1.8357449559631078,1.778004084965641,1.760183375948041,1.7887322743776801,1.7041172623013214,1.724418413160304,1.900818524592566,2.002445097169423,1.9316847489953164,1.7704265436447777,1.4840381638259772,1.4304160285841518,1.5074920097008653,1.588136170117975,1.8891441846238595,2.303492109942167,2.494035476802194,2.6478137219601976,2.928934021930967,3.0930619163073967,3.1153471753400033,3.1996391047947896,3.230763366020705,3.1123860791085525,2.9822004066269843,2.7655541583797985,2.494035476802194,2.2279063894747164,2.032218785856403,1.8628683453482566,1.6302729858376677,1.3180292533554483,1.0230858635035673,0.8200164111983058,0.837545976249839,1.0546993977499939,1.307601572382938,1.538374816680073,1.7032628576872515,1.7500463582872077,1.7277320610997253,1.7270245046889658,1.6995708850199782,1.609066646742161,1.5772353594827442,1.6876985392681045,1.900818524592566,2.1322189399972937,2.334350652161821,2.4634477584699095,2.554012327160825,2.6678294967057936,2.7767292072059973,2.873333314328148,2.8693850534252325,2.7220607702284396,2.494035476802194,2.2632612380476997,2.0983741914978804,2.0515906908979242,2.073904805768224,2.0746125444961656,2.047091301726782,1.966597776738091,1.9004768025317065,1.8903954885646355,1.900818524592566,1.8929607379367517,1.7912113405530496,1.5641619247072467,1.3026004463257221,1.133807552479338,0.9959011782529678,0.9854041504539731,1.150100344062357,1.2478407181626299,1.307601572382938,1.4279092336227623,1.5504406672596727,1.66389734601209,1.755219077961678,1.8191353385527318,1.8624968948068972,1.9034112562081487,1.9651708257304306,2.06496993788553,2.1974270006973797,2.327975517520582,2.441338650984118,2.53262002453923,2.5984368588857714,2.6371258246454774,2.648860355181716,2.635691021568255,2.601507279129529,2.5519148839968806,2.494035476802194,2.434095222474365,2.371329847384607,2.2912758311127654,2.1551522371677376,2.1667233783599316,2.123895978301736,1.9947896235402112,2.0376856080075827
2.0157436025066424,2.2407249116805845,2.23645010412963,2.2889530439113255,2.2141912313656094,2.308364752108631,2.35420141328302,2.145720405794292,2.0117405801518378,1.7845540783591294,1.7502432608442426,1.81662389450319,1.5758437821520495,1.255914054486849,1.1279493367731834,1.3476629224463148,1.5592078364831001,1.4472458271409026,1.2356104174844698,1.224163417719228,1.3762551957910851,1.5211674226642002,1.685178650618158,1.768613092641062,1.8057771243382632,1.731027974549582,1.713427123479715,1.7597414225235177,1.704434610218792,1.7605063922724564,1.9492827700052833,2.047225105964404,1.9614702592941486,1.7836014545065924,1.4953103379875485,1.4593747263170478,1.54717937750019,1.6359854969664742,1.9766307907334872,2.431644050827909,2.6337316753828643,2.7771056424648672,3.0375181579626567,3.193948156816379,3.234404140708291,3.3196113687160818,3.3147901068464876,3.128796879631478,2.9512519654620983,2.7012243029732352,2.416378931479435,2.1460772668174837,1.9518047428721108,1.789604869274271,1.5691292392142646,1.272758769903981,1.0010166006092842,0.8394447931306598,0.9078591500982889,1.1670402621973013,1.4449081230790812,1.6941083307482967,1.8696198862433597,1.9163352147195865,1.8843819831624447,1.8681311442133555,1.8240063978745662,1.7201824888920771,1.6811864346999852,1.7904155094774106,2.0036578462055785,2.220049712260393,2.3698511555892847,2.4282867296361488,2.466444920354905,2.5619991456948314,2.66639979850968,2.773341687659109,2.7854703547952036,2.6419048552259032,2.398191035656401,2.1401584720838915,1.9248420598679241,1.8102956733878504,1.7664563466699568,1.7142412857193339,1.6495705137558978,1.572224355149098,1.537759181277842,1.55472601605863,1.5708409655173237,1.560556685295947,1.4405479579381664,1.1982258482936736,0.9566001571375221,0.851804572156931,0.8040872595228077,0.8907406274217109,1.1072959159691487,1.2094630838533738,1.2763394130699408,1.4147527285092296,1.5460559390219963,1.6554594913430167,1.7311267573138858,1.77197818717451,1.7903647341421012,1.8096296687203979,1.8565510798381528,1.9486608156552516,2.07645292043287,2.198098458306016,2.297019452182612,2.369321142965643,2.4129909810010246,2.4280333750497145,2.4164320023538144,2.3819433261403127,2.3297235746658145,2.265783977475408,2.196278435596588,2.1407241691524233,2.0969887798028095,2.0065841032808938,1.8437624327887707,1.8372361737775782,1.7858288483858928,1.6503817589205974,1.690853339218753
1.8803171625340445,2.110744926129387,2.110020861726472,2.1636486819495317,2.088178467704301,2.181121745248798,2.2479833233478765,2.083637510215563,1.9558593899945524,1.6970888686211112,1.6543442074151646,1.7556725339429844,1.570482994016748,1.2593569321600415,1.0877083545622355,1.2737352607331285,1.490839158256817,1.4026362269014903,1.1765855943039605,1.1201685698039123,1.2598027142453962,1.4170027877291653,1.593368275471053,1.6869642816772623,1.7594487205742553,1.6869155698409724,1.6453881244421509,1.6644447450652209,1.5816530374075743,1.584838648962055,1.7547261420232287,1.8625165643447392,1.8026238575093763,1.6635772964854618,1.4147288615326192,1.4089736716088324,1.5575191152936072,1.7302967003308163,2.0614198908576418,2.457682093595277,2.6252835612287067,2.7769606505819597,3.061687184421388,3.1929616551164863,3.128018948788297,3.151424894967071,3.1765525783196495,3.0743352234873855,2.913543269469503,2.6718011605052188,2.390198979646972,2.1258326508593473,1.946751221342805,1.8085572624789978,1.6170838956713458,1.3499901184087117,1.1018773167127245,0.951197734387467,1.021284437146748,1.2822066451894816,1.5676299290030373,1.8246012242565652,2.000146060924568,2.0374824403691876,1.9892294798530563,1.9541323821967471,1.8930373158148952,1.7772040274462275,1.7319689963996003,1.8387766918156092,2.0486578538297513,2.259632396848419,2.413409647549064,2.4812617383260487,2.5214953615525415,2.6062046979093787,2.6951662013379694,2.7804942227662712,2.7671522513553293,2.6007166192321556,2.3399321766821894,2.068098832221983,1.8432629044267475,1.7178752483740125,1.6536354908041533,1.5691392500850094,1.4641759664451524,1.3346495528952864,1.2475276629860916,1.2299404857049074,1.2372516036122139,1.2379299561252044,1.163316218280208,0.996860962198488,0.8420425809403761,0.8191145709682229,0.8053316571644056,0.8734269259141865,1.1362772541812456,1.3481084393430403,1.4696776691881905,1.6151774214688626,1.7428501996505743,1.8357377171422504,1.8856037869400302,1.8974799235426376,1.889797868378994,1.8901252882849011,1.9264973942233827,2.014343530852675,2.1390164372530887,2.2529171909390615,2.3384520926465644,2.3920216873912685,2.412371500363673,2.4010014715979997,2.362108840971219,2.3020660912382804,2.228433485023439,2.1485098089627526,2.0674131041502486,1.9584902973778877,1.8187050782893186,1.7102623126583218,1.575137485387278,1.5780368589653282,1.5186964944648835,1.3799626654188657,1.4179185835108494
1.7839530283314935,2.0258927028243847,2.032147267798019,2.086742040346726,2.007283198516959,2.0939942366555258,2.129114791074785,1.9117718933351004,1.7906909327300646,1.5988659672360774,1.60259485084565,1.7016506599915153,1.4990149236889887,1.2225325076508577,1.1200262298072947,1.327185686337674,1.50387387549248,1.337297660247356,1.084910946012037,1.074140044656439,1.25879002516839,1.4436738026053855,1.6533704016208859,1.7662605628774504,1.7823433582148775,1.64879201938688,1.5602316634825246,1.520537732264632,1.3887322213399544,1.4186974093656535,1.622306852016723,1.7542695700755317,1.7502430453784814,1.6874169255183924,1.5050583073553447,1.5362801248481546,1.6401470523985548,1.678397213848707,1.9507558555472455,2.3492159002063366,2.5124440758617155,2.6106649717577426,2.8098520625343957,2.909464668355432,2.9163293412058113,2.969297521288514,2.9356926193297452,2.7551937690218975,2.6303823429985527,2.4269708636590344,2.163896500723335,1.9173982109082293,1.7697900992223146,1.67526336379975,1.531821873063087,1.3079939189595484,1.0858003223765569,0.9268705892086924,0.9656944696834039,1.1980359732353072,1.4723907809029448,1.722471729731948,1.8854640636093378,1.9053494888207414,1.8388756817585294,1.789206431646338,1.7198480197337467,1.6019382438002379,1.557911262978746,1.664555842526484,1.8685457086247894,2.077417975002392,2.261154480133162,2.374745278034698,2.438831458239785,2.5101802268330715,2.5733605558300625,2.6184753072591476,2.559043883613219,2.35945251277165,2.085954198078536,1.813366955494652,1.6091772966976126,1.5141953484190747,1.4659528297052105,1.3712869862724444,1.2328250087197337,1.0268902595752487,0.8442215033105817,0.758629751790736,0.747167636273641,0.763142466690485,0.7649417715382724,0.7199031955428686,0.6841223545859699,0.7482655171977146,0.8591178778704266,1.0885084286559386,1.3857812685735629,1.504743694195611,1.5703430407177914,1.7077764841729128,1.816787640194455,1.8808506391841524,1.898345662639838,1.8821109564306353,1.8561636972611915,1.8495973118955729,1.887654317613968,1.9799714962002115,2.106004298177299,2.2158500193886037,2.2915974386225892,2.328879744448326,2.3262682331270588,2.2864363043763483,2.2162787962531234,2.125987570741553,2.027081410853892,1.9294002421868304,1.837045188241828,1.7709370980527663,1.722114752688731,1.6011717492166826,1.3959967986428707,1.3583194280570763,1.2915981678913189,1.1532715359851355,1.2039270723314581
1.5651057310378693,1.823897836279568,1.8401062025764003,1.8954138663852396,1.8088750164665564,1.884653739353588,1.9312758467754687,1.7522179713958264,1.6377475925347544,1.4217907021286624,1.429667202193004,1.576359043658203,1.438102123212869,1.1754839344419235,1.0331672744237568,1.2124419477229678,1.4048614909846142,1.2776366495458678,1.0313286553617196,0.9992609192909678,1.1962761814932414,1.4157701246844008,1.6477376293979629,1.763598657429528,1.792469229666148,1.6293614330740473,1.484170028871749,1.3919646718360328,1.2211987414412857,1.2027209944467512,1.4036274025509687,1.5655444193273982,1.6115437405771023,1.6108604820744752,1.4821852908751312,1.5422885036154823,1.6883354892063918,1.7785579231301698,2.0039820973145472,2.309593569918275,2.411336402847516,2.4919841101625386,2.6872615912789537,2.735389681099403,2.6190224576979384,2.60596761927505,2.6130964199999163,2.5392155309311706,2.4597441340772495,2.291867433795493,2.054295730933783,1.8359908479757787,1.7329970829913781,1.6969309322182504,1.614580050933454,1.4419103313710921,1.24992934380466,1.092415983104302,1.1108998957344607,1.3165780085832277,1.5691764427902273,1.799033170324093,1.9404085267293232,1.9411123829299937,1.8630981478695774,1.8127651679111416,1.753074580390375,1.6505632971114395,1.6202703027917136,1.731591284920453,1.928143985641229,2.124508265697526,2.29973680691543,2.403940457727507,2.448009404649539,2.4877647601836244,2.5205286827026674,2.5377876890554596,2.4561724410275185,2.2449886144576996,1.9702108060653678,1.7024780816625842,1.5159385658718278,1.445759809509704,1.416117786977024,1.3250188300500882,1.1736571825710342,0.9318945877851598,0.7024386680025986,0.5807143028094812,0.555184063118076,0.5757701260103438,0.6173117921493956,0.6423872333420603,0.6852897149308425,0.8185880389453368,0.9448908858181961,1.1317488931523854,1.447473591024638,1.6466862393554114,1.7377450533536318,1.8533550637735559,1.9325447722934632,1.962454337004229,1.9503774686658089,1.917221466830571,1.890478537148916,1.896709621275086,1.95354353913319,2.0611869226470625,2.1934545413320676,2.303154922600389,2.373160311896302,2.397341702774861,2.3732036370885656,2.304231820474193,2.2003697326162723,2.076626668707735,1.9498107439913395,1.8334074673670475,1.7305701761044758,1.6122514295821762,1.4649907916563436,1.3204633534839123,1.13691330910791,1.1051737439655498,1.0319733289188266,0.8976661610624465,0.9582690554769971
1.553230484785366,1.8319285020959515,1.8597467188376677,1.9155010286666918,1.8199010292832554,1.8817487046198444,1.9078768913211586,1.7079957951690985,1.599536960764613,1.417594489857629,1.4611196674958895,1.6222018704682164,1.4619609784214023,1.170191697567219,1.014362483552504,1.188794812486115,1.3772868127064866,1.2674518813575244,1.0762374215232262,1.1171200276220477,1.3690088170578343,1.6224530372484611,1.8498825264096384,1.9211691227719265,1.8737029251233939,1.6424130726590989,1.4444724513102074,1.3288309165920105,1.16820265025538,1.19187444803473,1.4304160285841518,1.6200814553392846,1.6882825012034592,1.7055124362527971,1.5933563751313264,1.6633317152407154,1.783937945728219,1.8248494573876015,2.024942896601031,2.313340022274519,2.3816486352763326,2.409164773164608,2.537868372695834,2.536655665095402,2.4119529664099484,2.39664743894413,2.389904355080149,2.2903817807986595,2.214584340359528,2.0614708070744103,1.8498389443158905,1.6661975590314861,1.6145021186251056,1.6427142109216213,1.624630965161308,1.50225092108298,1.342086303915583,1.2080166787736326,1.2388355089960934,1.4378579176341355,1.6656172765883588,1.866642729525565,1.9832164519975763,1.9698385682452662,1.89382258337083,1.8626155211390807,1.8347654196082992,1.7676193562638847,1.764768851977873,1.8862533923841007,2.0746125444961656,2.2426519711503943,2.3432591337759288,2.343823753515655,2.2969061503408703,2.282101796235289,2.283965243582717,2.3002278368106084,2.2399029926735676,2.051690368673851,1.7884317245024282,1.5255444935802143,1.335009679053473,1.2578743288324414,1.228784196985296,1.1465208279480705,1.0059253084292923,0.7969676741027989,0.6113527384670625,0.5162880513362755,0.48961113601306,0.4984877949916873,0.5121438160365266,0.5102621701194336,0.5557817982878493,0.7270345155597108,0.907588259913762,1.147031912733317,1.4647401884019355,1.6172500363474165,1.6656172765883588,1.7505717301098418,1.7956590676644035,1.7946890490952327,1.76473045763668,1.7333811092747535,1.7283303597953354,1.7692098996506338,1.8617432991639995,1.994177294708698,2.136019772596773,2.248145817680298,2.315463951152785,2.329442275827599,2.2859113303366576,2.188848181697702,2.0513287011067582,1.8936445356217277,1.7385799003063127,1.6038732589289177,1.4918232732590482,1.380398038850532,1.2488809205598954,1.0856131655016377,0.8662477393498091,0.8117093110976203,0.733522222773962,0.6062312830694364,0.6863327018087124
1.6309947795629467,1.9654511011062807,2.004401808042813,1.9905078465006008,1.8711294372935963,1.9107078685046273,1.8898975969136818,1.6541637299788385,1.5228515030526857,1.4441995390623845,1.576020265184651,1.7324061764288015,1.5492669423877041,1.2704434742813107,1.1570338333619627,1.3001800034116517,1.4046729087208143,1.2982822472853468,1.2372620785630595,1.3866768768708644,1.6754917740807684,1.9453141268700853,2.0995125965593235,2.080968817596167,1.906765224731949,1.6405264876037906,1.4050194108131857,1.2508730838381255,1.141910987712949,1.2798903551094523,1.5735906732628802,1.8074156088568494,1.9280806407792621,1.9610582970461368,1.8727877860979236,1.9106123736649658,1.89213901574942,1.7857757526500797,1.9791224699430237,2.2740478518295664,2.3775179908938204,2.3679032456635194,2.2839258299227314,2.1959516900570772,2.163162359152518,2.184064742356319,2.1127047363948788,1.948164755463267,1.8805069236441718,1.7611969600366704,1.6220345364433153,1.518227077442969,1.5307908859706796,1.6179708853382047,1.656971364865543,1.5756849341632766,1.4015761685056283,1.2111391422858317,1.244600974979254,1.4529727744757006,1.626514848607458,1.7886544995250804,1.9042310689855566,1.8550727692514846,1.7962767831399433,1.8210300532969477,1.8440383947058272,1.828046844974639,1.8616785019799313,2.011133107587093,2.2346533517223968,2.417474293111533,2.456319454973722,2.349755857403566,2.2082277357737405,2.1346640454538615,2.065911954192907,2.04351698993934,2.0349895429493867,1.8853841755348506,1.662354859777203,1.4513469029912813,1.2390414942636716,1.1128075964343533,1.0181469241798529,0.9316092448203522,0.8064864210494005,0.6346058034012165,0.4952768910717154,0.4433686036419813,0.46058266052215774,0.5008120407305867,0.4951961411341839,0.4539985572412639,0.4856990733580034,0.6753805440251908,0.9261752646234458,1.2712863100414404,1.57028784833438,1.5409729691241543,1.5144396865921226,1.6101343624596856,1.60245449976375,1.5374028340576187,1.4702822329651608,1.460678194725756,1.4975480990848142,1.5901482225433803,1.728667281948484,1.904802329576859,2.1004436572614646,2.2590331368440286,2.338864195776036,2.343528996354518,2.283117302941479,2.1607781310605962,1.992477651062548,1.7680871241440126,1.5527738962633795,1.4229219968199907,1.2956042399153571,1.2208453112959814,1.2340643677773806,1.062710083260611,0.7250654899893613,0.5703509963766614,0.48153349037361964,0.38445774527478616,0.4570059288884758
1.5083088238267741,1.9301518344125075,1.9780342766910533,1.8331979144836947,1.7472457343248824,1.794454638921483,1.767924406058685,1.6099106758511212,1.4210160861433438,1.3139127965645874,1.481471171045804,1.6468931362089019,1.5253315802597032,1.3358126702220947,1.2220273233126064,1.2491058005172901,1.2467417101868832,1.2217263342186877,1.3143605675646595,1.4425953798969648,1.672966167301009,2.0140402462196865,2.1964536921317803,2.1143811097388334,1.9281579701978366,1.7385397739518866,1.4814524089503018,1.2493210673868835,1.1727094647081338,1.2653277204392082,1.5192617771761827,1.7784648916442576,1.9349752612986433,2.012018373527863,1.9815934975880762,1.9536251633644826,1.8483066761303648,1.800641398477539,1.9833401542058617,2.0893413198424806,2.194794406880107,2.3058810617065433,2.1419772848701997,1.9397606004679386,1.8479869829509568,1.8156927426424576,1.764745142457011,1.7769145160476578,1.77627793903088,1.664619139737369,1.6098102356578863,1.5892491336453234,1.6017714733011734,1.7276100743303837,1.808339327148825,1.7532398426291118,1.5827068307220762,1.3690456119801084,1.3699564686235775,1.5785777111741803,1.6691452798114614,1.7888498275246305,1.9307009696224438,1.8254862001472725,1.7951533778103281,1.904238538551598,1.9869480620777409,2.0277834646005997,2.0928864940293113,2.2143442452045443,2.479622010735764,2.698742800377337,2.6839188223132098,2.553289754443948,2.382608352924696,2.266927039912148,2.123181029757943,2.0676897124645883,2.097445666662004,1.8991052115602785,1.698750656590471,1.5883774917703681,1.3623338535229281,1.1949916740715067,1.1329108834275206,1.099751299474005,0.9755407245868245,0.7803864898857389,0.5960695199946591,0.47320670001723064,0.5309341541274986,0.6247548413996311,0.6020235350930411,0.5916016219732115,0.6571387486133121,0.8626542345353427,1.0741511162817001,1.3279871526716793,1.6008790141188416,1.5888350747497133,1.6270789213956374,1.780013667821939,1.7070449447655178,1.555273597428943,1.5012587841247214,1.562951305467268,1.6525931006006986,1.8031641544795365,1.981836443520822,2.1438486381536297,2.3974565957483764,2.6073424897221176,2.642616290020362,2.631244670122914,2.556556745758954,2.413226899435102,2.255046821372851,2.005095342604814,1.707634757425,1.606529719722801,1.4584499141219773,1.2852217736040918,1.2460770148882863,1.0739478491975691,0.8070854821623189,0.6145493222010683,0.5102108561197215,0.4647938559507301,0.48295331029330324
1.4525551686821776,1.8855201282147243,1.9524619838840893,1.8172787529610797,1.807949027496945,1.8816244057371438,1.8498460919781567,1.7000458875773912,1.5004717042738396,1.3158299114608094,1.4571586112416244,1.6152947011400394,1.471472200640656,1.30569400427736,1.1826628558176717,1.1831328363654228,1.1621444160257997,1.1308524892891971,1.209922788341751,1.318348474167611,1.560701014207282,2.0020215246317474,2.352231558998205,2.3227546826842365,2.177133722625821,1.9972543198067465,1.720150467365125,1.4460820799911003,1.3265839070413084,1.3186092871842356,1.533555742616668,1.765910513887166,1.8720184552391097,1.9833668470988,1.9847903796592896,1.9295947083233362,1.8050090386229338,1.7651104729420417,1.8613564842564472,1.818997680792845,1.8554675853972025,2.022670992467781,1.988804937719456,1.7918949719771862,1.6945020861394986,1.6657741356624143,1.6556937191995837,1.7548553386084214,1.8257035802387533,1.6918726414371952,1.6339184676234186,1.6040635649188062,1.563984546663022,1.712790239838585,1.8282943488369456,1.7823199055955,1.6625104923538494,1.5401224428937834,1.4929627556492968,1.6506985101636527,1.7137036323483188,1.8159763204454533,1.9594802009506616,1.8740832760581143,1.8842854545014875,2.042213703847814,2.1794362063228525,2.2698004250045565,2.360915691032176,2.4191341087404648,2.6447035234220895,2.8195551155781544,2.740458098771229,2.641425593076137,2.496816112171608,2.3558666321302675,2.2028878975401303,2.1671659947560276,2.1525744710995114,1.860296765633516,1.6259263287425425,1.5314976799641307,1.3520590206464596,1.2557717807873887,1.3794940439628383,1.4306775708695065,1.294976472133349,1.0434964378205924,0.7731268185724591,0.5208364341066256,0.5360020414220661,0.6042785665997706,0.547506189336858,0.6092647757966051,0.7495817809577725,0.977689481750481,1.171225933220332,1.3801448168584125,1.6352865094632894,1.6906603979168637,1.755769941041275,1.8902644947049454,1.8138456624057262,1.6792654745686426,1.7250657717522797,1.8623139187964572,2.002031974721159,2.203212057490508,2.4148997093068547,2.5272780647965876,2.7477337476994057,2.919333928372419,2.880226163470359,2.854687835525769,2.7681426645874994,2.6089250028656945,2.4679025296542214,2.269809375120785,1.964429466056618,1.8547458538255084,1.7033015420785074,1.4828946704577148,1.3506590567253727,1.1765419044773322,1.053937378224553,0.928148466914702,0.8249883002091741,0.793473681321366,0.815423675629755
1.5111689826363104,1.8496914580024415,2.0044721244652224,2.025311566805358,2.05642662101356,2.076942773553507,2.041263035761416,1.8894091463922777,1.6868924155588025,1.4642388824473833,1.590845038814665,1.8133136277187885,1.7190337248998133,1.4830983021762107,1.2690558747800509,1.2458144118484158,1.2276879734901536,1.2185503026034297,1.2773709305396064,1.3399782532064786,1.641534204394003,2.090700925369091,2.377393252792453,2.4341479287143795,2.3879044350345207,2.2210983012480505,1.9437280088185827,1.6609323879712294,1.5281467232994663,1.5099459989765045,1.721939098370595,1.9123420841078222,1.9388829587002523,2.0562084867919155,2.129331632501863,2.0156266957569753,1.8145315230717753,1.7263918474916107,1.7195740467314076,1.6858410420905403,1.6908101300465148,1.7475419334491897,1.7924495394104445,1.7533112280931817,1.7112983549089698,1.6568228592333012,1.680352747947556,1.8234357450935297,1.9355702119878122,1.794176688089709,1.7357564203990254,1.7019045946780753,1.6355991668568843,1.804510981229087,2.00801700860199,1.9279256380256096,1.7216956552091698,1.5731505595844706,1.4908630915305845,1.5821986961603272,1.6826804908615003,1.7780242724500241,1.9225639486633266,1.9892233888017339,2.068288475240299,2.21206859528191,2.3866771089109147,2.50887490210396,2.619290298213232,2.6805193692780165,2.8964848783145514,3.019043792123142,2.8565721996263096,2.7667843021325873,2.7014664864886724,2.513395705256894,2.3038176952814258,2.246674551166588,2.156938498049836,1.8967628799050864,1.648325817777092,1.4602297607541117,1.3782558451054434,1.4524816119862078,1.6271868531676417,1.6264235408476344,1.4791832561490779,1.2019512844510691,0.901189921267485,0.6306251894855626,0.6467408350644074,0.683196713676434,0.5679436140025695,0.662486940288736,0.9101198831605419,1.186709369107633,1.370685439016129,1.4894437356910017,1.6671531496818102,1.754748417868065,1.794755528569666,1.820682664480098,1.82691955297418,1.8573670362445895,1.9675246565757532,2.086781089372347,2.2618955497569115,2.4955145000833023,2.7380961299498536,2.900127111539597,3.065740460021389,3.1794140962209094,3.1742480891336107,3.1486199948381035,3.0521629348107346,2.881952939228114,2.694584576377408,2.4870582976759597,2.2352361700317886,2.079594394654911,1.9419257040244298,1.7707167097277752,1.5938400460420499,1.4084862217601457,1.2850820854937643,1.1608884826788402,1.0628606441047275,1.0407558459341577,1.0844363909604355
1.900818524592566,2.152992375230242,2.2794522966429174,2.362958538487124,2.3081165024033052,2.2484065643997657,2.2120438332936767,2.0598258254344137,1.8654342359381906,1.729400412487653,1.900818524592566,2.1287303007113088,1.9920883873037496,1.6859256704117709,1.5330999496605684,1.553230484785366,1.4935202152960403,1.4386782123608,1.508442014815691,1.5676640057418643,1.900818524592566,2.345441072666789,2.57505471338645,2.630997713212155,2.475166178796936,2.2484065643997657,1.9885009984020396,1.7359006995874924,1.639461523218292,1.6744254008806783,1.900818524592566,2.14549232699906,2.272124969080663,2.3503569405797804,2.346062940001802,2.146447403846415,1.9208268305490406,1.8656521256890677,1.8493756597810218,1.8842037494705344,1.900818524592566,1.8334526157311353,1.7833899914363962,1.816164405480574,1.7445508211797938,1.6551896453387165,1.7033009288298029,1.8529589879818502,1.9664236596852886,1.9071750696145013,1.900818524592566,1.9219493823027562,1.9481997769365846,2.124384306587756,2.2910885416435316,2.146447403846415,1.8933395951136476,1.7526666871303893,1.687412185271649,1.772432297840244,1.900818524592566,1.9595856921585646,2.0368879951958427,2.1719386276607784,2.2179095405786007,2.3202414237500153,2.5140053739149724,2.65030477134674,2.7699337485877877,2.8632616490900746,3.0872524290118215,3.2579074111139095,3.176320670863586,3.0254597658132476,2.8759339529156263,2.616849899854829,2.4043602513272195,2.400194469451364,2.316316830932238,2.1337062338487693,1.900818524592566,1.6205762973210047,1.4844086654892734,1.5790238910424783,1.5987622784821371,1.4813956254351166,1.3306081444864333,1.0878062091663379,0.8488593872432203,0.66135776710644,0.7143846201733101,0.8207478677342542,0.8081606231614555,0.8534472831192919,0.9637062179374517,1.1847871493303026,1.4417360692932584,1.6631316469944217,1.815851167986853,1.888189676481806,1.900818524592566,1.8386734878596314,1.8199510587755459,1.9235135787848567,1.9644493800652272,2.0236329642194906,2.2175687400417528,2.4654058450093124,2.7220970347734554,2.938385808748745,3.0872524290118215,3.182782654780824,3.2241572520836037,3.196614893669636,3.0913910953503616,2.9134583428110643,2.6838259399959017,2.4363905958012815,2.2093288652585197,2.031075574251059,1.900818524592566,1.7731717100350626,1.6105886968783254,1.4189214274600042,1.227760038500085,1.0724003409530203,0.9811232767131302,0.967738742527233,1.029425661759992
2.3561016555527217,2.5985105813246343,2.673106617828645,2.7120404852872353,2.608110144505925,2.543355854698642,2.5101312332338632,2.3607118272736294,2.1771646005268104,2.1134965399182146,2.2842608294583195,2.4358919748815984,2.2408227994332655,1.9335805638579855,1.8391012619796476,1.8632787123209222,1.7764579275256713,1.6724570217076118,1.7234950263541144,1.819308241538842,2.148351789688445,2.5352686622685576,2.7506975621143037,2.8238621103989545,2.6338972193845196,2.3889814986512174,2.152226394449655,1.9340679018302191,1.8770783081469329,1.9508967618678374,2.1460188258733672,2.3987971242679884,2.608723724696281,2.637716333425111,2.5121259821012263,2.278832915451302,2.0830098087307123,2.057993073670793,2.0594645390759756,2.1105490346040003,2.1317180483999745,2.058539710306616,1.9654483704921164,1.9690193218424006,1.8693912936451589,1.7994810241956116,1.8350587265191214,1.9180907282232236,2.0231713288264084,2.043243878800045,2.0868403921795076,2.1249256891738666,2.205662897651178,2.40592556035849,2.455115796935255,2.2598746135124346,2.083204407461533,2.0506696244922384,2.0139800732623367,2.1170095599837784,2.2502244987487408,2.3028113707315154,2.3348463560065853,2.435515108691206,2.4449337800789372,2.554842036083819,2.7619124555320105,2.906558532467342,3.0320308748513205,3.1411355761617434,3.3290172116038854,3.5043873801239664,3.4908834447578605,3.2734368572283428,2.9998086001070168,2.7240959603617254,2.562747441708722,2.606266818345723,2.551643794920882,2.3903168891411424,2.162451222695267,1.8509499189285212,1.637292379678781,1.6789504139030973,1.5620761166944,1.3361537027989931,1.1370887313859959,0.9503769755807018,0.8153338429816802,0.6988728091027058,0.7290382808404596,0.8632120588164512,0.940335873332121,0.9368225880779281,0.9238436599000915,1.1333329974277366,1.4896309257144993,1.8290491916951142,1.9919352325833555,2.065493536259208,2.0790450564099308,1.9930046305912454,1.92975480352738,2.0287369834647597,1.9637108463077422,1.9774921896976472,2.221064754886482,2.5123547735908986,2.7346383354162795,2.9091888058841113,3.046843383507243,3.1303096481656274,3.1602372457031653,3.121350780712009,3.0215026210912606,2.88063369209598,2.6901252306892456,2.453996866663754,2.2246924690340895,2.0462429467283116,1.9162044062847583,1.7531867054575754,1.557087189314118,1.408443824728084,1.2789890452566273,1.1043648523499325,0.9592658332362632,0.9054371823496018,0.9734240552472775
2.4599422299831146,2.7473562516860195,2.856892746381617,2.8346901599041026,2.781024334835649,2.78737507212302,2.771007232157993,2.6367030476736892,2.4675067356254337,2.406090242497101,2.5011728298603457,2.583581522266265,2.4677650956472403,2.2240411657612573,2.0237098357733228,1.9374023732923757,1.8725065411261488,1.774603736918825,1.7380454291988459,1.8580768343279785,2.167681007647841,2.4510001688588594,2.687365280032894,2.8783429927186495,2.813051430749006,2.6126158319070054,2.406023514408328,2.201696338732861,2.1504195980230985,2.2538365004700798,2.3840196536596725,2.5300488881867285,2.686181146507237,2.6975495841411368,2.5518286976924545,2.3647080873183945,2.173569173094784,2.040557998642632,2.0099534242581165,2.0517764223839623,2.0743988853326356,2.0634354404580924,2.0240500893586235,1.9853576181367276,1.9524511484424512,1.9658148238852482,2.0283109247836872,2.141052340080815,2.2694010177806985,2.2658219988950914,2.296963663124785,2.2836407852951313,2.3218663670742328,2.575355768777526,2.612394001618844,2.4398017834333086,2.2779118821941946,2.1438602898790164,2.0792176113359653,2.1747141250005053,2.3096542318171593,2.4236390005756583,2.5048092952327106,2.5536971504752546,2.615901519020356,2.7920372208152124,3.00483969247931,3.149876988939579,3.278698199627768,3.419968955693146,3.545063868360895,3.6192476028439624,3.5711836223745745,3.3662400157309893,3.103335721577928,2.8979829951769482,2.7601454373998044,2.7086805453577636,2.628466156262532,2.458956324957638,2.2306851685237272,1.943124020998166,1.7758467671815548,1.8357467418427813,1.7975363462562626,1.5291096232113772,1.2279408971450654,1.0598976252557164,0.9890418091751686,0.9074443287853704,0.8632863779297294,0.923881847062668,0.9896768696444742,1.0198002426873738,1.07034837763895,1.3773699493416791,1.7401325963034164,1.9520682782157552,2.099003749303134,2.1752956173667526,2.193421425902021,2.1348379594716196,2.1243449923735067,2.2465110623768076,2.2411128826448166,2.2910481335261874,2.57820296649282,2.869261077741174,3.014205160398348,3.174989026163046,3.3312771491002513,3.397931648028657,3.4125603809646807,3.3526270878383633,3.2019624223734873,3.1074668300405413,2.96731656222986,2.69152960337129,2.4573771929690804,2.282170314347308,2.154221408505647,1.9584856482897355,1.7682319917197502,1.7062815164254854,1.6294204706925792,1.3802245391900065,1.1960434121741337,1.1949466583017334,1.2716701042847653
2.40036916246072,2.670236481296942,2.7730135167307175,2.7458482565471924,2.7163958770328285,2.7580556184089438,2.7745158103140213,2.6698812611283924,2.517245978961393,2.4342373967280895,2.5083202600864,2.5936822919563713,2.5080144975971588,2.2761481457712724,2.045994266091464,1.9136937909496823,1.8150477873224322,1.6726778243898357,1.5778251389936475,1.6676777259385573,1.9670452866931065,2.3187884884002847,2.72984829950775,2.989286909765525,2.8706301803355605,2.6617065564507367,2.492722859385785,2.293692329345979,2.221126610134197,2.299828661626801,2.405202556710091,2.525033640835018,2.6688547159455203,2.6844190343646672,2.52267439019709,2.3181671182939514,2.1085820808198146,1.9420842246709888,1.8843139001255205,1.9046522416179343,1.9313951526535138,1.9383061692885977,1.9117925076074331,1.8915860042275707,1.9100138170319785,1.96255848983827,2.1181491086711843,2.4050709237043697,2.5791097127125395,2.5274783485086423,2.52111534624718,2.498822529338647,2.526053556302165,2.7738328170000233,2.8715535008445925,2.7328110531681324,2.4902902177947803,2.1813679065936697,2.074153337236468,2.1536914621791623,2.2915973060282746,2.421680582550469,2.5203423876907927,2.5720449550415774,2.646758403811079,2.8288038342032737,3.033580504604901,3.165265354703382,3.2784995733446447,3.4023832369494214,3.498959499265527,3.550257189876981,3.532907886796013,3.398380877566189,3.1891087295256977,2.9928995081612797,2.8397190644702066,2.7467388262605428,2.631814229000856,2.4405795485335964,2.2108381200433347,1.9405329872113446,1.81267754793069,1.9148556900662261,2.0460036802877934,1.8514085129395146,1.5329455104327527,1.3164220113722165,1.1852538813173483,1.0711322752262837,1.0373915303923074,1.1208507012548659,1.2339879934522275,1.3334252432923355,1.3660989353803596,1.6363355791053371,1.9407594417262242,2.0624541099364655,2.2001978240875206,2.280957871935505,2.3083874588849893,2.2701347615685723,2.2929427073889443,2.450045390348712,2.617855031055909,2.7563246659302822,3.006107890800361,3.2145214906544544,3.33681309432501,3.530108953411198,3.697632985964958,3.747017473212468,3.746191808416066,3.670563458876503,3.4291679514503266,3.2826253780346777,3.1090607462951656,2.778039437924745,2.5493171624843214,2.382605236958305,2.259814249950758,2.106100826838256,2.004666167957351,1.9665435622377492,1.847337084349144,1.5825357509077904,1.4853389471998169,1.6356805300431203,1.724897360398573
2.502083752800972,2.7341946085427997,2.812652785942457,2.7821041829329505,2.7711739032113214,2.84837057830281,2.90809231720034,2.8430036908290415,2.699278017327823,2.495471009148146,2.5660939233152718,2.7300468594937164,2.6718990814064782,2.421270866118659,2.1659326190168224,2.0027945826338707,1.8748700824332223,1.7039539226801448,1.5844773626036166,1.6588542041314664,1.952186179422781,2.3412335567304443,2.7761316709276955,3.0107793210945686,2.9450757222926116,2.8217877386457335,2.6935667824192935,2.514641694030266,2.441030203460009,2.505880657293884,2.5938469740949825,2.69626149667291,2.823953931961747,2.8163396371543326,2.55495487384546,2.2944307139348603,2.065787597300194,1.9405522133869475,1.9495182243592595,1.9340642679172875,1.986013280447649,2.034814675909993,1.9434277241319597,1.9422345451879104,2.0670477736652177,2.17765438735029,2.3411577790797065,2.6345633069234187,2.8220299221611707,2.813900962522018,2.7552403096262874,2.713639506422968,2.7726392692780366,2.945660993596822,3.0319045124696005,2.9246167510507934,2.6855318984462797,2.38103545286892,2.2790857396604776,2.366015168922173,2.5140803559998233,2.6547779731407677,2.7616210795258933,2.815525640657607,2.883541352818687,3.049014217624264,3.2288644828427264,3.3310640700368475,3.420018811155398,3.520039343384999,3.527504535885756,3.4837923008183123,3.517156742987733,3.4888707956580403,3.337211672834402,3.059306188315882,2.8349547518586906,2.737723341034632,2.62094441228664,2.4276768289380195,2.2032923433479388,1.9623612392211596,1.885853426813872,1.9949266846256826,2.1292157782195673,2.005540776630093,1.772600891511133,1.5079705094333231,1.2846340493050632,1.135436805118777,1.2102188714460331,1.3718295953559636,1.4750718379421681,1.602403881884189,1.6433381666170874,1.7570619566160686,1.9422904544093345,2.134124403168129,2.284176466325718,2.3703189483308464,2.410737573774648,2.4096295493855147,2.4937642551318806,2.6778462016005062,2.900603125128658,3.0603515618914128,3.2592987232559754,3.439498639681779,3.5837082161337714,3.6581316811374576,3.7884445778637903,3.84637649240702,3.822148328884021,3.804823953534179,3.5574988283634883,3.236560522045031,2.9755806354754895,2.7470646767884306,2.5541521478654667,2.4015708315844697,2.287576648629641,2.1644783411496578,2.121385304956647,2.1056984030937436,2.01306215597162,1.845924018452355,1.8206161684313755,1.9435344915601398,2.0318529664298377
2.545015007356001,2.7311665521825255,2.778198020724889,2.7391666301479827,2.7441375909986494,2.8566222539800337,2.9610514145724998,2.9375582876319406,2.825577615639977,2.7067461932006562,2.8416235166093937,2.957204455725863,2.7339765571926016,2.416766802997931,2.1196010164149772,1.936799317775733,1.8053716592116618,1.653244569616424,1.5637909921124282,1.6581754538355324,1.9517981048692412,2.315497199177146,2.6677734093107595,2.860807726111593,2.877948723524479,2.839711307702808,2.7465260123857673,2.608134740751265,2.5704088737949413,2.6503580079640123,2.7292367082321114,2.8093826123639025,2.8928397280145863,2.840498056067904,2.64118195102324,2.4217638517799758,2.162441344418837,2.0272491923846045,2.1158351721402373,2.120145912750422,2.1974270006973797,2.3100803899439675,2.265698155805347,2.2754569316097752,2.3147750905403703,2.379799806452079,2.4967758697971565,2.6831207371342245,2.8237230852601996,2.837410928940519,2.75994031399527,2.7048790663610016,2.7747847778809875,2.901980448570544,2.946565220524566,2.84347227913649,2.6609409568788043,2.4730004495610234,2.4341193546396043,2.5633836292297008,2.7292367082321114,2.879945726495188,2.991524107336954,3.0398893420888897,3.0891560855851217,3.2229067551035384,3.3616697548987466,3.419692363953095,3.477766287007156,3.6198941327214724,3.6086344887226214,3.4987270614322057,3.5015473425016554,3.452130900024351,3.2787696679632843,2.951724730490454,2.739504215272704,2.7454047285651844,2.678951507806192,2.5184559020812203,2.3098137759260835,2.0478830555272505,1.903886973531788,1.9633651895041258,1.9353605555151512,1.778004084965641,1.6132984274380597,1.3937386511697503,1.216380595538082,1.1199353364047038,1.276897966619779,1.478303260832309,1.528452949868808,1.6083916422356117,1.7688839911127334,1.867123303115973,1.9942161116942683,2.245184754597426,2.39934835198195,2.490334040215723,2.545015007356001,2.5353696328390503,2.5878962075573058,2.7716142489297817,2.8779042381319635,2.9645013197443606,3.1346879124304716,3.308590394483334,3.441790002030682,3.4671820784463767,3.5779308166623056,3.5877433263126854,3.467148134301864,3.482310691948071,3.4112431890444213,3.1000289519685715,2.825713723703813,2.700791382536387,2.54479171853038,2.411311441967811,2.3098137759260835,2.1558207611271656,2.04759656893648,2.0472071725833674,1.9509384420618867,1.8329913366852735,1.8222376145805481,1.86889356152174,1.970094031910015
