1.807,2.055,2.287,2.445,2.529,2.605,2.612,2.594,2.653,2.65,2.562,2.485,2.427,2.331,2.266,2.27,2.298,2.312,2.288,2.175,2.05,1.94,1.85,1.802,1.747,1.746,1.761,1.649,1.564,1.653,1.812,1.901,1.951,2.035,2.1,2.158,2.236,2.289,2.215,2.115,2.033,1.951,1.855,1.765,1.706,1.68,1.67,1.642,1.632,1.768,1.857,1.894,1.936,1.905,1.802,1.707,1.63,1.63,1.749,1.886,1.978,2.083,2.135,2.108,2.158,2.274,2.32,2.333,2.391,2.422,2.397,2.381,2.458,2.547,2.55,2.464,2.368,2.252,2.134,2.028,1.969,1.897,1.777,1.687,1.632,1.611,1.551,1.469,1.468,1.478,1.457,1.473,1.509,1.511,1.56,1.615,1.654,1.753,1.927,2.021,2.082,2.152,2.241,2.369,2.475,2.494,2.444,2.342,2.231,2.153,2.048,1.908,1.784,1.711,1.679,1.743,1.834,1.826,1.842,1.935,2.044,2.082,2.126,2.196,2.102,1.98,1.928,1.867,1.829
1.715,1.909,2.098,2.324,2.427,2.542,2.633,2.648,2.693,2.666,2.62,2.608,2.519,2.376,2.369,2.367,2.372,2.391,2.275,2.13,2.039,1.938,1.885,1.889,1.835,1.791,1.787,1.706,1.654,1.723,1.844,1.953,2.026,2.07,2.171,2.218,2.232,2.234,2.112,1.999,1.994,1.987,1.88,1.776,1.749,1.77,1.802,1.789,1.737,1.801,1.893,1.937,1.933,1.867,1.744,1.643,1.573,1.63,1.817,1.991,2.045,2.116,2.169,2.14,2.203,2.247,2.227,2.271,2.347,2.4,2.371,2.341,2.429,2.541,2.558,2.467,2.323,2.181,2.118,2.031,1.937,1.893,1.818,1.681,1.608,1.565,1.486,1.411,1.391,1.386,1.442,1.478,1.478,1.546,1.593,1.603,1.681,1.83,1.982,2.101,2.24,2.371,2.422,2.438,2.464,2.474,2.428,2.35,2.234,2.131,1.981,1.856,1.771,1.654,1.632,1.752,1.887,1.919,1.929,1.963,2.067,2.112,2.125,2.187,2.111,2.024,1.967,1.886,1.895
1.653,1.83,1.971,2.172,2.317,2.493,2.607,2.584,2.614,2.634,2.65,2.682,2.633,2.515,2.458,2.421,2.408,2.39,2.251,2.169,2.136,2.05,1.988,1.984,1.867,1.76,1.747,1.737,1.737,1.793,1.865,1.956,2.061,2.124,2.225,2.233,2.189,2.142,2.01,1.91,1.915,1.932,1.869,1.786,1.79,1.842,1.901,1.909,1.847,1.822,1.861,1.918,1.967,1.908,1.789,1.694,1.605,1.613,1.793,1.991,2.047,2.131,2.243,2.234,2.247,2.238,2.209,2.293,2.396,2.442,2.387,2.331,2.39,2.48,2.447,2.317,2.177,2.075,2.022,1.966,1.912,1.9,1.833,1.684,1.549,1.474,1.423,1.418,1.422,1.406,1.468,1.54,1.592,1.679,1.667,1.63,1.689,1.827,1.975,2.137,2.31,2.441,2.456,2.44,2.478,2.496,2.414,2.277,2.15,2.069,1.928,1.803,1.733,1.649,1.646,1.788,1.985,2.112,2.129,2.111,2.174,2.214,2.234,2.285,2.218,2.132,2.07,2.013,2.033
1.605,1.785,1.881,2.005,2.153,2.373,2.539,2.554,2.555,2.533,2.599,2.67,2.652,2.601,2.504,2.47,2.448,2.363,2.283,2.241,2.244,2.204,2.104,2.06,1.95,1.789,1.735,1.807,1.84,1.918,1.942,1.95,2.033,2.126,2.194,2.199,2.134,2.046,1.987,1.933,1.866,1.839,1.833,1.799,1.821,1.848,1.9,1.928,1.857,1.825,1.818,1.821,1.895,1.899,1.812,1.695,1.617,1.635,1.758,1.925,1.976,2.058,2.236,2.287,2.254,2.22,2.219,2.296,2.386,2.442,2.443,2.418,2.382,2.363,2.296,2.14,1.997,1.919,1.816,1.758,1.783,1.838,1.809,1.673,1.516,1.457,1.44,1.447,1.471,1.446,1.51,1.618,1.696,1.777,1.808,1.765,1.774,1.899,2.036,2.159,2.279,2.377,2.443,2.493,2.486,2.475,2.427,2.301,2.172,2.091,1.953,1.789,1.706,1.707,1.787,1.888,2.035,2.192,2.266,2.294,2.321,2.343,2.354,2.356,2.335,2.238,2.124,2.127,2.179
1.628,1.812,1.888,1.964,2.051,2.248,2.428,2.467,2.479,2.49,2.611,2.688,2.638,2.594,2.487,2.462,2.451,2.383,2.354,2.258,2.239,2.268,2.236,2.196,2.128,1.966,1.857,1.87,1.876,1.953,1.959,1.95,2.06,2.154,2.159,2.141,2.054,1.936,1.944,1.966,1.89,1.821,1.798,1.783,1.841,1.866,1.903,1.916,1.815,1.789,1.761,1.713,1.773,1.825,1.806,1.712,1.67,1.731,1.823,1.947,1.977,2.007,2.133,2.223,2.263,2.273,2.289,2.348,2.414,2.41,2.4,2.396,2.33,2.251,2.207,2.059,1.886,1.763,1.635,1.604,1.678,1.753,1.731,1.616,1.479,1.448,1.424,1.383,1.426,1.485,1.6,1.726,1.807,1.89,1.948,1.91,1.877,1.949,2.055,2.183,2.29,2.36,2.451,2.562,2.557,2.539,2.495,2.347,2.216,2.125,1.986,1.819,1.744,1.759,1.839,1.9,2.031,2.238,2.348,2.363,2.349,2.376,2.414,2.413,2.434,2.34,2.184,2.17,2.221
1.655,1.821,1.873,1.944,1.991,2.129,2.269,2.32,2.387,2.502,2.66,2.715,2.616,2.55,2.435,2.405,2.397,2.36,2.355,2.227,2.2,2.279,2.343,2.341,2.254,2.1,1.987,1.92,1.878,1.954,1.967,1.983,2.122,2.173,2.111,2.05,1.95,1.864,1.919,1.999,1.987,1.943,1.862,1.814,1.889,1.946,1.972,1.931,1.789,1.726,1.67,1.62,1.689,1.744,1.77,1.758,1.762,1.796,1.853,1.946,1.973,1.979,2.042,2.125,2.259,2.332,2.343,2.373,2.426,2.371,2.306,2.278,2.251,2.186,2.133,1.969,1.783,1.632,1.513,1.536,1.603,1.619,1.59,1.537,1.459,1.41,1.356,1.327,1.408,1.55,1.689,1.793,1.865,1.972,2.009,1.966,1.943,1.969,2.019,2.172,2.303,2.35,2.405,2.535,2.6,2.624,2.551,2.352,2.238,2.173,2.059,1.933,1.852,1.797,1.792,1.859,2.045,2.298,2.398,2.343,2.295,2.34,2.453,2.509,2.55,2.462,2.317,2.262,2.245
1.609,1.761,1.812,1.904,1.956,2.024,2.103,2.189,2.32,2.451,2.573,2.634,2.596,2.548,2.43,2.386,2.348,2.267,2.255,2.182,2.203,2.272,2.311,2.347,2.267,2.155,2.105,2.037,1.951,1.998,2.019,2.041,2.111,2.085,2.032,1.985,1.9,1.889,1.975,2.027,2.076,2.126,2.031,1.916,1.917,1.979,2.009,1.94,1.782,1.694,1.599,1.548,1.625,1.659,1.686,1.771,1.855,1.866,1.88,1.935,1.97,2.0,2.043,2.068,2.17,2.261,2.287,2.312,2.361,2.356,2.288,2.192,2.143,2.115,2.034,1.848,1.708,1.608,1.494,1.503,1.485,1.411,1.435,1.489,1.491,1.39,1.304,1.347,1.468,1.58,1.657,1.721,1.817,1.97,2.021,1.997,2.016,2.031,2.023,2.111,2.215,2.267,2.333,2.45,2.53,2.592,2.551,2.412,2.331,2.235,2.123,2.041,1.922,1.788,1.749,1.88,2.082,2.243,2.304,2.292,2.276,2.292,2.405,2.532,2.623,2.557,2.472,2.413,2.277
1.617,1.785,1.868,1.957,1.98,2.0,2.021,2.064,2.196,2.309,2.421,2.529,2.596,2.593,2.459,2.384,2.324,2.21,2.172,2.145,2.219,2.278,2.245,2.272,2.269,2.225,2.209,2.144,2.028,2.001,2.014,2.05,2.085,2.018,2.011,2.021,1.959,1.94,2.007,2.008,2.061,2.164,2.127,2.015,1.951,1.968,2.001,1.975,1.84,1.749,1.625,1.533,1.584,1.638,1.704,1.809,1.917,1.975,2.007,2.047,2.053,2.052,2.059,2.055,2.095,2.174,2.244,2.305,2.332,2.329,2.277,2.156,2.027,1.968,1.907,1.767,1.694,1.675,1.571,1.509,1.43,1.334,1.364,1.432,1.436,1.339,1.276,1.347,1.465,1.523,1.568,1.657,1.815,1.98,2.034,2.009,2.012,2.015,2.015,2.06,2.119,2.169,2.257,2.361,2.434,2.512,2.53,2.474,2.402,2.231,2.08,2.002,1.903,1.801,1.8,1.921,2.067,2.158,2.206,2.261,2.275,2.249,2.295,2.432,2.582,2.57,2.52,2.461,2.295
1.697,1.857,1.927,2.011,2.013,1.97,1.945,1.99,2.103,2.224,2.344,2.45,2.526,2.559,2.461,2.331,2.27,2.219,2.128,2.102,2.223,2.331,2.286,2.231,2.24,2.218,2.201,2.173,2.051,2.005,2.055,2.109,2.117,2.064,2.059,2.051,2.004,2.007,2.029,1.975,2.026,2.126,2.135,2.121,2.049,2.016,2.044,2.041,1.931,1.847,1.767,1.655,1.595,1.653,1.768,1.847,1.888,1.959,2.066,2.085,2.034,1.99,1.997,2.056,2.112,2.206,2.297,2.277,2.23,2.21,2.182,2.085,1.972,1.885,1.817,1.708,1.635,1.634,1.606,1.509,1.428,1.349,1.307,1.345,1.32,1.25,1.243,1.317,1.41,1.462,1.545,1.686,1.837,1.932,1.947,1.922,1.894,1.929,2.014,2.079,2.098,2.099,2.11,2.194,2.329,2.398,2.432,2.475,2.409,2.246,2.111,2.027,1.962,1.938,1.958,1.984,2.039,2.137,2.202,2.246,2.234,2.212,2.26,2.365,2.492,2.526,2.52,2.453,2.311
1.733,1.897,1.973,2.058,2.083,2.028,1.97,1.989,2.07,2.161,2.267,2.362,2.424,2.459,2.42,2.294,2.218,2.172,2.09,2.106,2.267,2.414,2.389,2.28,2.244,2.198,2.145,2.09,1.958,1.927,2.0,2.057,2.062,2.038,2.054,2.041,1.993,1.981,1.971,1.929,2.0,2.091,2.123,2.191,2.19,2.17,2.196,2.19,2.084,1.945,1.867,1.784,1.719,1.745,1.787,1.802,1.804,1.882,2.021,2.059,2.0,1.929,1.932,2.049,2.127,2.225,2.335,2.295,2.201,2.16,2.133,2.024,1.881,1.773,1.688,1.591,1.547,1.614,1.65,1.543,1.467,1.397,1.302,1.316,1.309,1.269,1.286,1.366,1.456,1.502,1.6,1.736,1.814,1.863,1.909,1.903,1.837,1.854,1.963,2.013,2.0,1.995,2.004,2.084,2.236,2.294,2.317,2.375,2.333,2.228,2.133,2.055,2.009,2.025,2.102,2.106,2.126,2.243,2.312,2.312,2.267,2.221,2.219,2.277,2.356,2.4,2.438,2.426,2.336
1.771,1.922,2.033,2.115,2.139,2.08,2.009,1.984,2.017,2.066,2.139,2.244,2.353,2.365,2.308,2.212,2.141,2.088,2.078,2.186,2.38,2.521,2.463,2.322,2.243,2.17,2.097,2.021,1.873,1.809,1.877,1.957,1.976,1.954,1.993,2.038,2.025,1.972,1.912,1.841,1.915,2.026,2.094,2.202,2.291,2.305,2.328,2.349,2.255,2.049,1.92,1.853,1.833,1.83,1.759,1.722,1.754,1.867,1.995,2.067,2.017,1.922,1.923,2.077,2.189,2.256,2.328,2.295,2.194,2.159,2.129,1.997,1.783,1.635,1.558,1.497,1.508,1.669,1.745,1.632,1.521,1.444,1.376,1.371,1.337,1.3,1.317,1.395,1.518,1.568,1.639,1.758,1.842,1.891,1.926,1.897,1.805,1.778,1.853,1.892,1.861,1.866,1.945,2.033,2.151,2.197,2.229,2.306,2.301,2.226,2.137,2.075,2.067,2.091,2.189,2.199,2.2,2.288,2.343,2.326,2.285,2.215,2.129,2.145,2.223,2.261,2.313,2.393,2.382
1.839,1.929,2.038,2.102,2.099,2.034,1.993,1.983,1.969,2.019,2.062,2.124,2.214,2.197,2.131,2.095,2.089,2.112,2.177,2.286,2.452,2.584,2.501,2.33,2.232,2.148,2.075,2.014,1.866,1.782,1.866,1.975,1.973,1.909,1.897,2.0,2.061,1.977,1.858,1.755,1.839,1.977,2.073,2.197,2.329,2.354,2.352,2.378,2.299,2.138,2.007,1.901,1.859,1.858,1.769,1.732,1.777,1.854,1.965,2.055,1.997,1.899,1.961,2.148,2.313,2.323,2.286,2.221,2.123,2.065,2.003,1.913,1.744,1.564,1.521,1.52,1.533,1.673,1.783,1.765,1.656,1.567,1.547,1.516,1.398,1.343,1.341,1.388,1.556,1.667,1.722,1.814,1.921,1.97,1.932,1.845,1.759,1.732,1.765,1.825,1.781,1.737,1.809,1.911,2.047,2.095,2.13,2.224,2.257,2.257,2.193,2.148,2.181,2.192,2.219,2.186,2.164,2.227,2.266,2.233,2.219,2.192,2.118,2.112,2.176,2.172,2.174,2.287,2.374
1.833,1.914,1.996,2.045,2.07,2.036,2.013,2.01,1.985,2.013,2.023,2.014,2.014,2.006,2.043,2.081,2.115,2.174,2.244,2.275,2.395,2.534,2.481,2.323,2.26,2.195,2.111,2.029,1.884,1.825,1.916,1.995,1.937,1.85,1.813,1.903,1.952,1.855,1.756,1.733,1.858,1.997,2.085,2.202,2.31,2.335,2.338,2.335,2.241,2.144,2.074,1.985,1.929,1.929,1.863,1.823,1.818,1.829,1.937,2.036,1.992,1.925,2.028,2.2,2.304,2.256,2.209,2.192,2.101,1.976,1.874,1.801,1.688,1.553,1.553,1.581,1.591,1.681,1.786,1.872,1.85,1.793,1.771,1.731,1.606,1.53,1.485,1.487,1.64,1.761,1.824,1.887,1.933,1.961,1.951,1.876,1.781,1.733,1.739,1.752,1.677,1.606,1.662,1.783,1.949,1.999,1.997,2.037,2.091,2.182,2.193,2.183,2.218,2.222,2.23,2.18,2.149,2.21,2.24,2.218,2.216,2.209,2.162,2.15,2.149,2.096,2.057,2.134,2.247
1.825,1.94,1.963,2.002,2.019,2.051,2.064,1.998,1.961,2.002,1.997,1.96,1.917,1.881,1.979,2.047,2.082,2.131,2.152,2.173,2.305,2.453,2.446,2.333,2.259,2.218,2.166,2.099,1.972,1.899,1.962,1.985,1.88,1.826,1.778,1.762,1.756,1.741,1.731,1.784,1.897,1.989,2.042,2.143,2.207,2.213,2.267,2.317,2.208,2.099,2.09,2.089,2.049,2.009,1.979,1.909,1.863,1.905,1.967,2.043,2.049,2.035,2.115,2.222,2.265,2.184,2.104,2.117,2.09,1.96,1.866,1.791,1.677,1.626,1.619,1.648,1.714,1.758,1.769,1.86,1.97,2.0,1.949,1.895,1.815,1.726,1.612,1.56,1.67,1.754,1.806,1.863,1.928,1.985,1.968,1.906,1.825,1.71,1.658,1.631,1.57,1.509,1.587,1.745,1.908,1.937,1.893,1.885,1.973,2.085,2.175,2.233,2.266,2.301,2.26,2.194,2.168,2.189,2.205,2.203,2.211,2.234,2.221,2.177,2.101,2.039,1.989,2.029,2.143
1.784,1.936,1.976,2.025,2.001,2.041,2.098,2.052,1.998,1.973,1.922,1.896,1.878,1.805,1.849,1.892,1.956,2.057,2.055,2.072,2.216,2.356,2.352,2.295,2.294,2.307,2.256,2.145,2.01,1.902,1.936,1.948,1.861,1.819,1.785,1.72,1.671,1.684,1.723,1.76,1.844,1.931,1.988,2.066,2.132,2.141,2.194,2.244,2.158,2.072,2.106,2.164,2.148,2.087,2.057,1.959,1.884,1.921,1.934,1.985,2.023,2.037,2.096,2.175,2.233,2.154,2.022,1.997,2.026,1.982,1.945,1.875,1.745,1.725,1.733,1.769,1.864,1.891,1.834,1.821,1.945,2.06,2.086,2.047,1.93,1.803,1.67,1.614,1.688,1.764,1.811,1.856,1.936,2.018,1.953,1.874,1.839,1.755,1.676,1.635,1.577,1.48,1.504,1.663,1.808,1.827,1.82,1.887,2.005,2.077,2.175,2.27,2.326,2.4,2.375,2.322,2.3,2.288,2.289,2.255,2.239,2.246,2.198,2.124,2.079,2.048,1.979,1.969,2.056
1.806,1.969,2.038,2.074,2.034,2.06,2.115,2.113,2.057,1.954,1.861,1.844,1.828,1.728,1.739,1.787,1.862,1.963,1.972,1.983,2.088,2.213,2.255,2.259,2.366,2.438,2.381,2.224,2.067,1.921,1.929,1.939,1.865,1.817,1.765,1.692,1.651,1.652,1.677,1.732,1.844,1.94,1.987,2.029,2.081,2.079,2.087,2.116,2.111,2.109,2.136,2.185,2.217,2.185,2.141,2.022,1.906,1.89,1.896,1.91,1.95,2.004,2.062,2.118,2.184,2.142,2.014,1.949,1.992,2.021,2.036,1.986,1.863,1.842,1.877,1.92,1.98,1.976,1.915,1.827,1.91,2.063,2.175,2.182,2.016,1.857,1.769,1.745,1.755,1.812,1.848,1.883,1.971,2.043,1.964,1.865,1.83,1.829,1.793,1.769,1.675,1.516,1.443,1.552,1.701,1.757,1.798,1.924,2.062,2.105,2.183,2.285,2.334,2.399,2.428,2.442,2.45,2.443,2.427,2.334,2.283,2.254,2.147,2.059,2.086,2.075,1.969,1.91,1.969
1.912,2.074,2.14,2.12,2.116,2.161,2.155,2.126,2.081,1.968,1.871,1.84,1.769,1.659,1.671,1.746,1.806,1.855,1.905,1.981,2.038,2.132,2.243,2.272,2.362,2.436,2.42,2.317,2.157,1.982,1.955,1.933,1.857,1.836,1.759,1.672,1.662,1.647,1.62,1.719,1.887,1.987,2.024,2.052,2.048,1.995,1.957,2.027,2.128,2.179,2.127,2.114,2.196,2.226,2.201,2.07,1.924,1.907,1.959,1.96,2.017,2.134,2.178,2.181,2.18,2.191,2.144,2.075,2.088,2.099,2.128,2.088,1.978,1.968,1.986,2.002,2.001,1.96,1.928,1.861,1.936,2.06,2.135,2.189,2.099,1.986,1.951,1.905,1.814,1.825,1.838,1.882,2.01,2.046,2.041,1.953,1.829,1.833,1.878,1.892,1.756,1.607,1.551,1.567,1.646,1.731,1.791,1.895,2.058,2.124,2.197,2.308,2.329,2.321,2.339,2.435,2.495,2.473,2.424,2.312,2.251,2.215,2.103,2.005,2.023,1.992,1.895,1.881,1.943
1.945,2.117,2.203,2.175,2.193,2.252,2.243,2.206,2.15,2.021,1.907,1.838,1.724,1.619,1.609,1.666,1.748,1.851,1.921,2.023,2.086,2.156,2.228,2.244,2.293,2.352,2.359,2.302,2.165,2.012,1.962,1.908,1.85,1.872,1.84,1.744,1.687,1.616,1.586,1.684,1.859,1.989,2.088,2.14,2.11,2.008,1.925,1.97,2.077,2.135,2.067,2.022,2.084,2.137,2.153,2.038,1.897,1.89,1.961,2.016,2.12,2.262,2.302,2.288,2.249,2.262,2.261,2.238,2.237,2.185,2.18,2.141,2.047,2.053,2.052,2.039,2.012,1.944,1.899,1.859,1.954,2.056,2.075,2.131,2.142,2.122,2.109,2.017,1.905,1.911,1.924,1.947,2.043,2.081,2.154,2.106,1.956,1.904,1.944,1.947,1.825,1.733,1.724,1.675,1.629,1.669,1.741,1.86,2.027,2.117,2.184,2.275,2.279,2.246,2.252,2.376,2.457,2.407,2.33,2.215,2.153,2.117,2.012,1.901,1.877,1.854,1.82,1.873,1.947
2.007,2.147,2.23,2.254,2.232,2.273,2.312,2.251,2.134,2.002,1.935,1.865,1.742,1.663,1.617,1.663,1.765,1.826,1.863,2.006,2.105,2.131,2.172,2.235,2.293,2.297,2.31,2.31,2.19,2.1,2.009,1.905,1.884,1.895,1.869,1.778,1.697,1.604,1.586,1.706,1.922,2.079,2.178,2.248,2.176,2.081,2.006,1.958,2.001,2.047,1.98,1.921,2.004,2.078,2.04,1.911,1.828,1.85,1.912,1.978,2.111,2.243,2.266,2.279,2.261,2.288,2.303,2.313,2.343,2.275,2.185,2.117,2.065,2.055,2.072,2.1,2.107,2.015,1.908,1.841,1.954,2.061,2.078,2.122,2.137,2.187,2.22,2.133,2.062,2.047,2.061,2.079,2.164,2.253,2.341,2.275,2.117,1.998,1.969,1.95,1.916,1.897,1.871,1.795,1.686,1.691,1.794,1.916,1.994,2.082,2.14,2.164,2.152,2.143,2.184,2.297,2.379,2.327,2.217,2.105,2.028,1.942,1.83,1.738,1.748,1.788,1.834,1.898,1.949
2.0,2.117,2.195,2.262,2.248,2.29,2.372,2.338,2.205,2.051,2.0,1.924,1.77,1.687,1.653,1.71,1.815,1.839,1.834,1.918,2.0,2.031,2.116,2.224,2.309,2.29,2.299,2.326,2.217,2.124,2.0,1.876,1.859,1.839,1.79,1.71,1.666,1.636,1.647,1.771,2.0,2.174,2.278,2.347,2.247,2.156,2.101,2.034,2.04,2.072,2.0,1.903,1.934,1.998,1.961,1.844,1.754,1.723,1.77,1.85,2.0,2.138,2.188,2.223,2.209,2.239,2.247,2.244,2.32,2.348,2.267,2.188,2.149,2.106,2.067,2.083,2.105,2.004,1.879,1.853,2.0,2.103,2.112,2.155,2.146,2.216,2.31,2.303,2.279,2.255,2.267,2.276,2.342,2.451,2.481,2.372,2.248,2.16,2.076,2.007,2.0,1.986,1.906,1.846,1.817,1.844,1.923,1.976,1.963,1.977,2.0,1.985,1.961,1.977,2.052,2.156,2.271,2.303,2.199,2.088,2.0,1.883,1.751,1.662,1.653,1.71,1.79,1.839,1.871
1.965,2.068,2.149,2.223,2.249,2.313,2.4,2.399,2.3,2.169,2.086,1.981,1.826,1.726,1.671,1.696,1.786,1.821,1.796,1.835,1.896,1.955,2.097,2.216,2.305,2.301,2.29,2.291,2.215,2.092,1.974,1.868,1.8,1.755,1.727,1.663,1.648,1.706,1.773,1.88,2.086,2.287,2.405,2.432,2.315,2.224,2.17,2.106,2.079,2.101,2.046,1.934,1.875,1.879,1.861,1.787,1.664,1.554,1.608,1.728,1.86,1.992,2.109,2.177,2.146,2.148,2.156,2.178,2.286,2.371,2.355,2.321,2.278,2.21,2.1,2.073,2.054,1.93,1.841,1.881,2.045,2.13,2.092,2.134,2.192,2.28,2.385,2.439,2.444,2.469,2.488,2.472,2.492,2.565,2.575,2.504,2.436,2.36,2.213,2.063,2.014,1.995,1.954,1.928,1.948,1.995,2.021,1.97,1.918,1.859,1.819,1.79,1.806,1.861,1.962,2.062,2.173,2.246,2.198,2.094,1.972,1.861,1.759,1.641,1.563,1.626,1.744,1.794,1.81
2.013,2.084,2.176,2.237,2.264,2.337,2.394,2.368,2.302,2.225,2.092,1.955,1.863,1.769,1.698,1.669,1.705,1.729,1.703,1.772,1.837,1.896,2.043,2.167,2.262,2.289,2.249,2.205,2.167,2.035,1.962,1.918,1.811,1.755,1.755,1.702,1.68,1.787,1.93,2.075,2.276,2.492,2.574,2.51,2.366,2.284,2.214,2.103,2.009,1.99,1.962,1.916,1.872,1.805,1.731,1.69,1.587,1.476,1.547,1.682,1.754,1.833,1.998,2.129,2.139,2.111,2.101,2.155,2.272,2.319,2.369,2.418,2.365,2.289,2.184,2.142,2.059,1.901,1.847,1.84,1.953,2.068,2.065,2.104,2.212,2.282,2.365,2.479,2.513,2.586,2.595,2.586,2.638,2.657,2.667,2.692,2.666,2.491,2.259,2.099,2.033,1.992,1.991,1.984,1.968,2.017,2.023,1.923,1.874,1.811,1.72,1.664,1.733,1.855,1.964,2.039,2.094,2.143,2.18,2.108,1.923,1.791,1.692,1.541,1.494,1.633,1.814,1.882,1.886
2.059,2.108,2.207,2.266,2.302,2.375,2.422,2.38,2.296,2.18,2.034,1.897,1.802,1.728,1.714,1.695,1.708,1.731,1.718,1.756,1.785,1.813,1.932,2.064,2.166,2.185,2.141,2.102,2.059,1.946,1.903,1.906,1.855,1.821,1.824,1.796,1.792,1.888,2.037,2.218,2.43,2.632,2.688,2.596,2.428,2.323,2.228,2.091,1.974,1.914,1.867,1.838,1.834,1.776,1.703,1.667,1.584,1.492,1.549,1.682,1.77,1.851,2.006,2.152,2.189,2.161,2.117,2.116,2.223,2.296,2.393,2.472,2.421,2.349,2.221,2.145,2.039,1.874,1.801,1.744,1.833,1.992,2.083,2.142,2.191,2.226,2.333,2.505,2.571,2.64,2.63,2.638,2.742,2.76,2.746,2.766,2.73,2.528,2.295,2.185,2.136,2.048,1.959,1.931,1.916,1.968,1.983,1.891,1.821,1.779,1.707,1.648,1.708,1.828,1.89,1.938,1.999,2.075,2.132,2.095,1.914,1.736,1.573,1.437,1.465,1.649,1.85,1.957,1.993
2.084,2.12,2.192,2.208,2.241,2.323,2.386,2.356,2.23,2.059,1.972,1.911,1.808,1.721,1.697,1.706,1.722,1.748,1.768,1.751,1.75,1.801,1.892,1.967,2.068,2.069,2.024,2.026,1.985,1.927,1.877,1.882,1.906,1.889,1.931,1.954,1.977,2.043,2.128,2.327,2.535,2.672,2.702,2.639,2.479,2.32,2.172,2.049,1.97,1.947,1.899,1.857,1.835,1.78,1.712,1.679,1.629,1.536,1.526,1.634,1.811,1.942,2.049,2.177,2.193,2.15,2.096,2.08,2.178,2.304,2.418,2.473,2.431,2.39,2.254,2.146,2.019,1.844,1.774,1.709,1.792,1.96,2.103,2.201,2.198,2.223,2.356,2.516,2.587,2.693,2.698,2.696,2.779,2.781,2.744,2.717,2.64,2.509,2.381,2.291,2.244,2.173,2.013,1.92,1.929,1.985,2.0,1.912,1.788,1.753,1.716,1.69,1.737,1.758,1.768,1.858,1.963,2.006,1.997,1.942,1.807,1.646,1.48,1.386,1.507,1.703,1.857,1.968,2.042
2.051,2.079,2.125,2.111,2.135,2.215,2.271,2.227,2.101,1.968,1.945,1.935,1.848,1.757,1.704,1.719,1.722,1.711,1.74,1.764,1.784,1.83,1.863,1.875,1.954,1.949,1.896,1.91,1.912,1.943,1.917,1.921,1.974,1.973,2.055,2.108,2.158,2.229,2.246,2.35,2.506,2.639,2.727,2.694,2.546,2.363,2.194,2.092,2.046,2.006,1.936,1.892,1.865,1.796,1.719,1.687,1.649,1.552,1.522,1.623,1.844,2.015,2.129,2.233,2.211,2.149,2.081,2.046,2.134,2.248,2.345,2.417,2.443,2.41,2.238,2.107,1.977,1.809,1.777,1.778,1.89,2.013,2.081,2.193,2.256,2.322,2.458,2.584,2.638,2.71,2.703,2.687,2.725,2.708,2.718,2.695,2.582,2.479,2.42,2.301,2.239,2.222,2.097,1.974,1.96,1.999,2.021,1.957,1.813,1.768,1.733,1.718,1.747,1.694,1.679,1.801,1.942,1.99,1.95,1.874,1.761,1.634,1.512,1.446,1.538,1.695,1.847,1.997,2.065
2.018,2.038,2.038,2.027,2.07,2.119,2.14,2.107,2.016,1.96,1.966,1.953,1.87,1.787,1.756,1.753,1.731,1.714,1.731,1.787,1.806,1.819,1.83,1.806,1.81,1.788,1.754,1.785,1.85,1.946,1.965,2.003,2.091,2.114,2.183,2.217,2.247,2.303,2.305,2.338,2.428,2.559,2.71,2.714,2.558,2.378,2.23,2.132,2.096,2.029,1.96,1.94,1.933,1.867,1.75,1.694,1.653,1.585,1.604,1.713,1.917,2.083,2.177,2.25,2.227,2.183,2.103,1.998,2.051,2.136,2.207,2.314,2.414,2.354,2.184,2.048,1.91,1.774,1.781,1.852,1.998,2.104,2.132,2.233,2.323,2.382,2.496,2.628,2.672,2.67,2.629,2.62,2.658,2.637,2.688,2.663,2.52,2.419,2.395,2.293,2.212,2.193,2.12,2.018,1.985,1.991,2.021,2.031,1.92,1.837,1.778,1.745,1.733,1.661,1.656,1.779,1.922,1.977,1.945,1.872,1.749,1.632,1.557,1.509,1.538,1.668,1.852,2.018,2.03
1.974,2.024,2.006,2.001,2.05,2.028,2.014,2.04,1.98,1.962,1.975,1.972,1.913,1.817,1.797,1.745,1.709,1.765,1.778,1.822,1.808,1.777,1.802,1.776,1.729,1.698,1.701,1.774,1.891,1.993,2.036,2.082,2.149,2.192,2.246,2.242,2.203,2.214,2.268,2.353,2.401,2.47,2.615,2.672,2.523,2.37,2.258,2.137,2.087,2.039,2.026,2.018,1.984,1.95,1.842,1.778,1.715,1.654,1.734,1.835,2.001,2.144,2.177,2.2,2.141,2.128,2.112,2.014,2.014,2.086,2.12,2.185,2.25,2.158,2.09,1.99,1.863,1.821,1.846,1.912,2.057,2.166,2.201,2.278,2.333,2.34,2.403,2.527,2.574,2.585,2.546,2.551,2.618,2.626,2.669,2.593,2.423,2.351,2.354,2.339,2.254,2.199,2.182,2.138,2.132,2.09,2.06,2.084,2.029,1.933,1.853,1.794,1.749,1.709,1.706,1.799,1.911,1.93,1.901,1.869,1.747,1.631,1.602,1.567,1.601,1.746,1.916,1.983,1.914
1.869,1.988,2.04,2.02,2.005,1.955,1.942,1.959,1.892,1.87,1.91,1.958,1.942,1.835,1.788,1.724,1.689,1.759,1.787,1.859,1.845,1.778,1.759,1.742,1.744,1.722,1.713,1.798,1.936,2.038,2.077,2.09,2.095,2.137,2.213,2.204,2.132,2.123,2.195,2.309,2.366,2.427,2.563,2.634,2.538,2.425,2.331,2.204,2.142,2.07,2.064,2.06,2.006,1.987,1.942,1.912,1.844,1.756,1.811,1.886,2.036,2.179,2.212,2.2,2.076,2.048,2.094,2.092,2.078,2.099,2.081,2.062,2.033,1.966,1.975,1.93,1.877,1.936,1.971,1.98,2.086,2.162,2.136,2.182,2.255,2.274,2.313,2.394,2.421,2.445,2.424,2.444,2.54,2.588,2.651,2.57,2.384,2.288,2.286,2.329,2.291,2.273,2.314,2.305,2.298,2.23,2.141,2.109,2.078,2.042,1.957,1.86,1.813,1.802,1.762,1.804,1.891,1.904,1.884,1.908,1.832,1.729,1.686,1.646,1.688,1.815,1.931,1.941,1.859
1.79,1.944,1.997,2.001,1.941,1.894,1.914,1.907,1.816,1.817,1.895,1.934,1.929,1.892,1.842,1.745,1.674,1.73,1.798,1.852,1.796,1.74,1.766,1.785,1.797,1.728,1.66,1.741,1.886,1.934,1.962,2.014,2.019,2.048,2.116,2.16,2.117,2.046,2.087,2.199,2.329,2.431,2.518,2.577,2.524,2.422,2.315,2.226,2.216,2.147,2.137,2.142,2.104,2.103,2.028,1.942,1.903,1.857,1.834,1.901,2.017,2.148,2.226,2.167,2.057,2.012,2.025,2.103,2.127,2.13,2.065,1.977,1.892,1.871,1.942,1.961,1.943,1.991,2.029,1.987,2.052,2.138,2.078,2.048,2.101,2.197,2.28,2.34,2.352,2.317,2.33,2.39,2.442,2.498,2.606,2.55,2.356,2.231,2.225,2.285,2.274,2.305,2.395,2.387,2.399,2.338,2.231,2.198,2.173,2.131,2.017,1.899,1.834,1.814,1.803,1.848,1.862,1.829,1.859,1.865,1.827,1.767,1.68,1.66,1.712,1.752,1.79,1.871,1.877
1.733,1.884,1.914,1.953,1.941,1.931,1.96,1.911,1.8,1.787,1.867,1.907,1.939,1.97,1.941,1.83,1.734,1.76,1.817,1.824,1.733,1.681,1.73,1.769,1.788,1.692,1.587,1.651,1.786,1.828,1.867,1.961,2.017,2.062,2.094,2.147,2.135,2.052,2.055,2.118,2.267,2.389,2.446,2.491,2.414,2.303,2.209,2.176,2.239,2.247,2.267,2.265,2.199,2.181,2.101,1.991,1.933,1.855,1.79,1.887,2.0,2.102,2.166,2.098,2.093,2.078,2.03,2.081,2.123,2.099,2.0,1.927,1.902,1.888,1.908,1.922,1.905,1.909,1.945,1.927,2.0,2.125,2.111,2.054,2.048,2.147,2.232,2.262,2.272,2.228,2.267,2.354,2.393,2.422,2.479,2.414,2.253,2.178,2.201,2.27,2.267,2.322,2.429,2.418,2.411,2.345,2.251,2.247,2.22,2.14,2.0,1.889,1.83,1.776,1.752,1.789,1.769,1.729,1.782,1.759,1.733,1.721,1.661,1.659,1.71,1.706,1.684,1.763,1.822
1.682,1.833,1.863,1.911,1.947,1.986,2.002,1.916,1.822,1.794,1.853,1.909,1.986,2.05,2.014,1.924,1.852,1.842,1.848,1.78,1.676,1.649,1.706,1.74,1.768,1.674,1.578,1.637,1.722,1.764,1.792,1.863,1.973,2.081,2.141,2.151,2.107,2.021,2.01,2.072,2.203,2.306,2.367,2.411,2.3,2.206,2.164,2.16,2.253,2.344,2.416,2.421,2.327,2.257,2.166,2.077,1.988,1.825,1.743,1.883,2.017,2.08,2.112,2.088,2.135,2.121,2.069,2.094,2.104,2.072,1.981,1.925,1.938,1.913,1.879,1.871,1.866,1.853,1.858,1.88,1.994,2.113,2.115,2.093,2.059,2.112,2.158,2.141,2.154,2.154,2.177,2.241,2.325,2.357,2.32,2.234,2.156,2.168,2.211,2.266,2.292,2.357,2.437,2.445,2.427,2.381,2.315,2.307,2.285,2.176,1.995,1.868,1.815,1.748,1.706,1.723,1.72,1.689,1.697,1.64,1.625,1.637,1.629,1.648,1.679,1.686,1.661,1.663,1.715
1.711,1.872,1.914,1.94,1.939,1.99,1.989,1.894,1.864,1.858,1.887,1.921,1.976,2.046,1.997,1.967,1.941,1.869,1.827,1.718,1.636,1.665,1.736,1.741,1.747,1.65,1.576,1.622,1.647,1.715,1.733,1.734,1.87,2.033,2.134,2.082,1.997,1.948,1.943,2.014,2.102,2.158,2.235,2.308,2.238,2.204,2.243,2.263,2.336,2.442,2.552,2.588,2.507,2.386,2.224,2.144,2.085,1.917,1.806,1.904,2.016,2.048,2.099,2.142,2.157,2.095,2.082,2.109,2.041,2.019,1.968,1.901,1.898,1.881,1.87,1.859,1.872,1.863,1.832,1.867,2.016,2.096,2.077,2.107,2.077,2.09,2.127,2.114,2.124,2.132,2.089,2.049,2.117,2.195,2.194,2.164,2.173,2.21,2.236,2.24,2.304,2.379,2.417,2.47,2.477,2.501,2.483,2.439,2.429,2.32,2.094,1.908,1.823,1.759,1.726,1.745,1.77,1.703,1.615,1.541,1.572,1.587,1.585,1.633,1.612,1.631,1.665,1.652,1.674
1.797,1.961,2.051,2.084,2.033,2.031,2.001,1.912,1.907,1.898,1.904,1.91,1.931,1.986,1.973,1.971,1.939,1.831,1.778,1.725,1.683,1.695,1.713,1.699,1.702,1.61,1.52,1.53,1.563,1.716,1.788,1.778,1.849,1.958,2.003,1.941,1.915,1.975,1.985,1.969,1.986,2.013,2.092,2.201,2.213,2.225,2.298,2.358,2.432,2.501,2.598,2.633,2.544,2.442,2.323,2.255,2.203,2.059,1.923,1.923,1.98,2.016,2.091,2.134,2.138,2.084,2.087,2.105,2.007,1.943,1.879,1.818,1.836,1.838,1.818,1.774,1.773,1.797,1.807,1.864,2.014,2.107,2.105,2.125,2.089,2.09,2.125,2.13,2.118,2.093,2.019,1.917,1.9,1.986,2.086,2.15,2.198,2.225,2.257,2.251,2.291,2.35,2.405,2.485,2.507,2.555,2.553,2.49,2.476,2.419,2.22,2.021,1.911,1.827,1.744,1.751,1.796,1.726,1.613,1.585,1.665,1.697,1.7,1.75,1.704,1.694,1.715,1.693,1.701
1.872,1.992,2.147,2.206,2.165,2.081,2.015,1.976,1.959,2.0,2.013,1.978,1.983,2.021,2.021,1.972,1.916,1.85,1.78,1.75,1.703,1.693,1.747,1.73,1.648,1.539,1.458,1.449,1.509,1.672,1.803,1.866,1.866,1.879,1.896,1.868,1.894,2.014,2.011,1.947,1.966,2.032,2.103,2.164,2.202,2.255,2.319,2.378,2.452,2.465,2.529,2.576,2.517,2.464,2.429,2.332,2.224,2.13,2.017,1.945,1.97,2.018,2.075,2.097,2.048,2.049,2.118,2.135,2.055,1.983,1.895,1.809,1.82,1.855,1.848,1.748,1.671,1.68,1.758,1.905,2.048,2.144,2.146,2.117,2.122,2.111,2.087,2.126,2.118,2.022,1.887,1.771,1.757,1.85,1.949,2.07,2.173,2.222,2.285,2.264,2.231,2.256,2.342,2.432,2.466,2.503,2.525,2.507,2.481,2.446,2.273,2.08,1.975,1.896,1.845,1.82,1.835,1.833,1.767,1.764,1.797,1.84,1.925,1.964,1.92,1.849,1.785,1.735,1.713
1.894,1.972,2.12,2.2,2.221,2.125,2.044,2.036,2.019,2.104,2.133,2.083,2.09,2.129,2.154,2.086,2.02,1.985,1.898,1.837,1.761,1.711,1.736,1.706,1.627,1.536,1.473,1.466,1.52,1.579,1.683,1.807,1.842,1.853,1.932,1.952,1.971,2.052,2.041,2.022,2.083,2.157,2.181,2.19,2.2,2.254,2.282,2.28,2.344,2.403,2.492,2.556,2.531,2.502,2.469,2.34,2.185,2.076,1.987,1.975,2.023,2.042,2.036,2.05,2.017,2.074,2.159,2.135,2.08,2.024,1.922,1.82,1.831,1.855,1.811,1.67,1.588,1.635,1.735,1.865,1.977,2.088,2.127,2.103,2.154,2.15,2.08,2.09,2.081,2.004,1.858,1.72,1.698,1.782,1.869,2.009,2.149,2.236,2.321,2.287,2.216,2.186,2.201,2.281,2.385,2.456,2.503,2.54,2.526,2.455,2.267,2.063,1.933,1.861,1.889,1.877,1.864,1.883,1.866,1.899,1.917,1.96,2.072,2.108,2.101,2.016,1.917,1.865,1.819
1.907,1.966,2.098,2.207,2.277,2.195,2.091,2.072,2.093,2.184,2.202,2.157,2.17,2.212,2.263,2.221,2.143,2.059,1.964,1.917,1.842,1.765,1.724,1.659,1.63,1.584,1.527,1.496,1.512,1.527,1.586,1.702,1.804,1.854,1.962,1.993,2.014,2.114,2.136,2.128,2.167,2.204,2.191,2.186,2.182,2.208,2.222,2.223,2.274,2.363,2.439,2.475,2.481,2.491,2.455,2.32,2.155,2.04,1.98,1.985,2.029,2.031,1.981,1.983,2.003,2.105,2.193,2.163,2.12,2.02,1.911,1.83,1.826,1.807,1.697,1.565,1.517,1.574,1.681,1.788,1.901,2.02,2.064,2.086,2.167,2.178,2.138,2.152,2.102,2.052,1.925,1.748,1.65,1.695,1.801,1.962,2.109,2.215,2.307,2.269,2.175,2.111,2.095,2.167,2.309,2.393,2.451,2.515,2.502,2.42,2.235,2.018,1.877,1.831,1.874,1.864,1.852,1.872,1.888,1.972,2.019,2.079,2.204,2.236,2.205,2.124,2.042,1.99,1.932
1.956,2.004,2.139,2.274,2.339,2.254,2.137,2.113,2.172,2.245,2.238,2.211,2.244,2.279,2.267,2.213,2.134,2.018,1.934,1.914,1.85,1.81,1.798,1.691,1.623,1.587,1.558,1.511,1.476,1.545,1.596,1.668,1.802,1.858,1.933,1.942,1.95,2.086,2.179,2.203,2.202,2.2,2.185,2.18,2.182,2.181,2.198,2.243,2.284,2.34,2.332,2.299,2.357,2.436,2.443,2.311,2.149,2.087,2.086,2.035,2.03,2.04,1.977,1.957,1.977,2.087,2.192,2.206,2.173,2.044,1.974,1.912,1.825,1.759,1.611,1.533,1.502,1.49,1.628,1.77,1.926,2.058,2.078,2.133,2.225,2.237,2.246,2.262,2.129,2.035,1.924,1.777,1.689,1.665,1.703,1.839,1.97,2.069,2.169,2.158,2.04,1.968,2.007,2.098,2.24,2.301,2.364,2.435,2.372,2.295,2.144,1.944,1.861,1.879,1.916,1.881,1.88,1.926,1.959,2.044,2.097,2.171,2.302,2.313,2.239,2.178,2.118,2.035,1.972
2.011,2.056,2.167,2.275,2.308,2.243,2.172,2.164,2.188,2.234,2.234,2.238,2.309,2.345,2.268,2.161,2.082,2.008,1.939,1.925,1.869,1.841,1.837,1.724,1.615,1.57,1.574,1.56,1.513,1.58,1.636,1.715,1.849,1.879,1.936,1.932,1.899,1.979,2.095,2.199,2.233,2.223,2.183,2.158,2.17,2.198,2.222,2.242,2.274,2.315,2.285,2.24,2.315,2.422,2.457,2.332,2.178,2.15,2.175,2.136,2.095,2.064,1.995,1.985,1.99,2.07,2.138,2.114,2.081,2.026,1.993,1.909,1.773,1.699,1.557,1.492,1.483,1.502,1.655,1.776,1.93,2.109,2.188,2.238,2.319,2.345,2.335,2.265,2.096,1.995,1.908,1.82,1.799,1.746,1.695,1.773,1.862,1.923,2.03,2.065,1.966,1.872,1.878,1.982,2.171,2.265,2.337,2.385,2.284,2.183,2.046,1.881,1.843,1.887,1.94,1.907,1.903,1.946,1.981,2.084,2.15,2.197,2.254,2.247,2.224,2.207,2.167,2.102,2.047
2.001,2.096,2.197,2.241,2.223,2.239,2.247,2.184,2.149,2.198,2.23,2.281,2.406,2.435,2.35,2.209,2.102,2.025,1.929,1.934,1.91,1.858,1.849,1.786,1.651,1.568,1.582,1.612,1.602,1.656,1.695,1.782,1.911,1.906,1.887,1.902,1.916,1.953,2.012,2.074,2.138,2.164,2.101,2.048,2.068,2.164,2.251,2.3,2.33,2.295,2.248,2.255,2.336,2.397,2.447,2.357,2.23,2.228,2.227,2.186,2.075,1.986,1.945,1.928,1.975,2.009,2.015,1.988,1.926,1.928,1.911,1.808,1.674,1.602,1.504,1.448,1.443,1.486,1.628,1.819,2.001,2.176,2.262,2.27,2.308,2.399,2.433,2.306,2.107,1.972,1.945,1.898,1.837,1.802,1.741,1.754,1.811,1.9,2.013,2.056,1.991,1.879,1.813,1.92,2.088,2.226,2.316,2.319,2.253,2.092,1.97,1.885,1.852,1.871,1.845,1.803,1.832,1.854,1.864,2.015,2.122,2.186,2.241,2.203,2.154,2.149,2.117,2.083,2.067
2.0,2.09,2.131,2.15,2.158,2.239,2.298,2.241,2.2,2.234,2.267,2.322,2.446,2.488,2.468,2.349,2.223,2.114,1.991,2.007,2.0,1.93,1.908,1.857,1.741,1.651,1.619,1.591,1.605,1.69,1.733,1.82,1.952,1.941,1.879,1.894,1.925,1.914,1.91,1.927,2.0,2.048,1.989,1.94,1.975,2.106,2.221,2.281,2.314,2.294,2.267,2.283,2.331,2.361,2.418,2.349,2.222,2.191,2.162,2.132,2.0,1.889,1.862,1.833,1.905,1.917,1.911,1.929,1.847,1.785,1.733,1.671,1.634,1.592,1.535,1.494,1.489,1.526,1.645,1.827,2.0,2.172,2.27,2.273,2.299,2.423,2.493,2.371,2.16,2.003,2.0,1.966,1.89,1.88,1.848,1.844,1.879,1.967,2.076,2.072,2.0,1.915,1.873,1.954,2.034,2.156,2.251,2.249,2.234,2.096,2.0,1.912,1.793,1.769,1.734,1.71,1.76,1.782,1.786,1.905,2.0,2.091,2.189,2.157,2.139,2.156,2.108,2.047,2.034
1.987,2.045,2.015,2.05,2.119,2.226,2.291,2.245,2.226,2.257,2.281,2.352,2.498,2.548,2.573,2.489,2.349,2.213,2.092,2.093,2.101,2.054,2.013,1.945,1.831,1.719,1.651,1.6,1.614,1.704,1.743,1.824,1.96,1.962,1.923,1.906,1.869,1.823,1.818,1.835,1.866,1.888,1.868,1.873,1.95,2.059,2.161,2.252,2.293,2.288,2.266,2.259,2.275,2.309,2.379,2.351,2.243,2.144,2.073,2.038,1.92,1.822,1.806,1.757,1.773,1.783,1.808,1.842,1.758,1.646,1.591,1.582,1.623,1.618,1.557,1.536,1.558,1.582,1.683,1.829,1.972,2.148,2.311,2.354,2.366,2.448,2.488,2.384,2.205,2.032,2.001,2.002,1.99,1.986,1.97,1.958,1.957,2.013,2.124,2.129,2.046,1.963,1.918,1.944,2.0,2.102,2.184,2.189,2.181,2.115,2.033,1.903,1.742,1.679,1.636,1.603,1.639,1.705,1.754,1.801,1.869,1.965,2.056,2.083,2.134,2.17,2.139,2.077,2.028
1.939,2.007,1.987,2.051,2.1,2.179,2.234,2.18,2.183,2.251,2.29,2.383,2.544,2.568,2.59,2.531,2.401,2.299,2.217,2.163,2.173,2.147,2.059,1.999,1.902,1.757,1.674,1.665,1.659,1.702,1.707,1.768,1.896,1.91,1.914,1.847,1.732,1.733,1.797,1.828,1.769,1.733,1.78,1.867,2.006,2.06,2.125,2.267,2.32,2.292,2.262,2.246,2.25,2.272,2.291,2.311,2.293,2.164,2.027,1.963,1.872,1.8,1.784,1.694,1.63,1.664,1.717,1.707,1.632,1.55,1.538,1.533,1.534,1.561,1.534,1.578,1.651,1.661,1.746,1.927,2.06,2.195,2.382,2.478,2.498,2.509,2.461,2.357,2.248,2.088,2.025,2.031,2.008,1.982,1.977,1.939,1.904,1.987,2.121,2.188,2.11,2.014,1.953,1.927,1.973,2.039,2.099,2.109,2.068,2.057,1.974,1.823,1.711,1.613,1.521,1.446,1.445,1.559,1.684,1.717,1.793,1.88,1.933,2.045,2.108,2.124,2.136,2.097,2.005
1.977,2.038,2.043,2.111,2.099,2.131,2.202,2.205,2.22,2.303,2.349,2.41,2.496,2.5,2.517,2.473,2.403,2.41,2.359,2.247,2.198,2.13,2.014,1.982,1.944,1.818,1.718,1.676,1.647,1.674,1.661,1.699,1.803,1.809,1.813,1.739,1.62,1.639,1.732,1.811,1.762,1.722,1.781,1.887,2.038,2.097,2.126,2.199,2.262,2.312,2.321,2.304,2.277,2.247,2.179,2.191,2.224,2.128,1.972,1.925,1.885,1.846,1.815,1.696,1.615,1.645,1.683,1.653,1.597,1.523,1.508,1.478,1.437,1.49,1.581,1.707,1.818,1.851,1.934,2.081,2.196,2.316,2.479,2.579,2.632,2.625,2.509,2.35,2.254,2.151,2.102,2.065,1.974,1.931,1.897,1.828,1.78,1.874,2.01,2.08,2.013,1.976,2.018,2.006,1.971,1.967,1.997,1.992,1.944,1.957,1.899,1.751,1.618,1.51,1.468,1.43,1.426,1.527,1.655,1.69,1.751,1.81,1.842,1.974,2.08,2.127,2.138,2.064,1.971
2.079,2.106,2.088,2.171,2.204,2.185,2.211,2.228,2.215,2.282,2.366,2.428,2.509,2.547,2.536,2.487,2.44,2.454,2.441,2.292,2.159,2.08,2.016,1.976,1.911,1.815,1.734,1.699,1.689,1.644,1.627,1.692,1.752,1.732,1.696,1.636,1.543,1.556,1.661,1.766,1.753,1.733,1.747,1.801,1.927,2.061,2.114,2.131,2.226,2.31,2.288,2.26,2.229,2.143,2.045,2.072,2.138,2.081,1.913,1.801,1.82,1.882,1.874,1.747,1.63,1.643,1.674,1.669,1.652,1.562,1.493,1.44,1.408,1.472,1.643,1.798,1.918,2.001,2.105,2.239,2.376,2.517,2.628,2.68,2.701,2.668,2.522,2.356,2.267,2.211,2.147,2.054,1.953,1.919,1.82,1.72,1.684,1.728,1.817,1.913,1.886,1.884,1.999,2.033,2.008,1.987,1.954,1.877,1.836,1.84,1.806,1.707,1.593,1.498,1.467,1.466,1.49,1.547,1.629,1.638,1.692,1.768,1.794,1.868,2.018,2.103,2.108,2.067,1.999
2.106,2.117,2.101,2.198,2.287,2.261,2.269,2.301,2.277,2.336,2.437,2.481,2.528,2.58,2.549,2.49,2.424,2.387,2.377,2.285,2.156,2.054,1.964,1.907,1.868,1.815,1.745,1.719,1.747,1.701,1.692,1.752,1.757,1.724,1.701,1.67,1.592,1.592,1.676,1.696,1.651,1.648,1.656,1.669,1.746,1.907,2.013,2.071,2.187,2.247,2.184,2.146,2.119,2.019,1.97,2.027,2.059,1.943,1.776,1.687,1.761,1.851,1.82,1.71,1.614,1.636,1.66,1.647,1.646,1.615,1.563,1.519,1.513,1.571,1.676,1.791,1.912,2.023,2.148,2.298,2.455,2.645,2.805,2.831,2.805,2.745,2.576,2.387,2.286,2.195,2.092,1.998,1.952,1.927,1.826,1.728,1.687,1.682,1.728,1.806,1.784,1.763,1.851,1.917,1.946,1.949,1.925,1.875,1.85,1.85,1.825,1.743,1.629,1.542,1.456,1.435,1.508,1.617,1.685,1.678,1.733,1.815,1.811,1.848,2.013,2.114,2.147,2.188,2.136
2.13,2.128,2.115,2.216,2.327,2.324,2.353,2.401,2.38,2.416,2.517,2.57,2.577,2.588,2.518,2.448,2.391,2.358,2.314,2.25,2.138,2.018,1.892,1.815,1.823,1.829,1.771,1.708,1.735,1.749,1.773,1.789,1.75,1.747,1.744,1.73,1.678,1.653,1.688,1.666,1.608,1.582,1.566,1.576,1.627,1.754,1.885,1.994,2.082,2.144,2.106,2.064,2.015,1.928,1.931,1.987,1.973,1.81,1.657,1.649,1.75,1.808,1.75,1.673,1.621,1.649,1.649,1.623,1.643,1.665,1.645,1.632,1.642,1.672,1.735,1.835,1.934,2.024,2.169,2.342,2.486,2.687,2.903,2.924,2.902,2.843,2.664,2.445,2.31,2.157,2.042,1.959,1.914,1.882,1.785,1.687,1.659,1.661,1.677,1.729,1.72,1.686,1.738,1.836,1.892,1.887,1.877,1.892,1.899,1.914,1.874,1.792,1.697,1.61,1.499,1.446,1.512,1.671,1.766,1.758,1.814,1.896,1.87,1.891,2.045,2.179,2.242,2.278,2.228
2.218,2.195,2.162,2.254,2.333,2.333,2.36,2.364,2.339,2.365,2.487,2.614,2.654,2.615,2.543,2.488,2.42,2.342,2.239,2.163,2.056,1.98,1.936,1.828,1.765,1.786,1.792,1.731,1.709,1.726,1.784,1.779,1.76,1.818,1.789,1.777,1.776,1.707,1.662,1.641,1.61,1.564,1.539,1.579,1.646,1.72,1.832,1.937,1.965,2.004,2.003,1.972,1.917,1.855,1.872,1.89,1.87,1.779,1.651,1.626,1.673,1.718,1.734,1.706,1.69,1.697,1.671,1.69,1.758,1.763,1.727,1.743,1.756,1.743,1.815,1.919,1.996,2.098,2.278,2.49,2.602,2.737,2.894,2.882,2.852,2.799,2.656,2.466,2.291,2.114,2.023,1.93,1.826,1.783,1.68,1.588,1.591,1.614,1.61,1.666,1.706,1.688,1.738,1.867,1.944,1.907,1.846,1.85,1.9,1.938,1.864,1.796,1.764,1.676,1.595,1.521,1.498,1.612,1.745,1.778,1.859,1.982,1.98,1.972,2.059,2.23,2.326,2.303,2.241
2.26,2.24,2.233,2.307,2.298,2.245,2.251,2.24,2.225,2.287,2.422,2.539,2.566,2.54,2.526,2.487,2.365,2.195,2.077,2.064,2.018,1.994,2.004,1.904,1.779,1.766,1.795,1.776,1.742,1.737,1.795,1.819,1.834,1.889,1.852,1.853,1.87,1.792,1.717,1.629,1.574,1.571,1.626,1.674,1.714,1.747,1.814,1.883,1.906,1.905,1.875,1.845,1.82,1.778,1.78,1.774,1.774,1.761,1.67,1.611,1.608,1.646,1.708,1.717,1.762,1.785,1.755,1.795,1.898,1.925,1.898,1.916,1.921,1.905,1.927,1.974,2.044,2.197,2.385,2.596,2.693,2.782,2.865,2.828,2.77,2.722,2.607,2.438,2.256,2.086,1.988,1.871,1.739,1.694,1.636,1.582,1.601,1.625,1.633,1.666,1.693,1.692,1.77,1.888,1.953,1.912,1.85,1.851,1.901,1.945,1.874,1.802,1.766,1.685,1.629,1.546,1.477,1.538,1.681,1.798,1.945,2.109,2.134,2.115,2.149,2.296,2.398,2.381,2.297
2.244,2.189,2.214,2.246,2.213,2.186,2.189,2.167,2.18,2.228,2.336,2.425,2.434,2.435,2.414,2.35,2.244,2.089,1.963,1.993,2.034,2.053,2.083,2.029,1.882,1.805,1.786,1.759,1.739,1.751,1.813,1.868,1.89,1.896,1.829,1.813,1.805,1.763,1.744,1.706,1.629,1.628,1.711,1.718,1.706,1.706,1.743,1.835,1.887,1.846,1.803,1.759,1.692,1.683,1.729,1.701,1.69,1.757,1.748,1.706,1.641,1.639,1.717,1.748,1.828,1.832,1.782,1.856,1.991,2.027,2.002,2.032,2.097,2.133,2.144,2.107,2.128,2.257,2.371,2.514,2.652,2.778,2.835,2.803,2.736,2.721,2.663,2.492,2.275,2.085,1.984,1.872,1.743,1.669,1.595,1.563,1.612,1.667,1.678,1.72,1.721,1.722,1.832,1.915,1.954,1.914,1.881,1.88,1.867,1.913,1.877,1.819,1.778,1.667,1.616,1.572,1.499,1.481,1.596,1.769,1.944,2.102,2.175,2.207,2.289,2.406,2.479,2.441,2.305
2.267,2.188,2.213,2.224,2.182,2.17,2.157,2.096,2.117,2.168,2.267,2.361,2.397,2.401,2.341,2.258,2.174,2.05,1.934,1.944,2.0,2.035,2.07,2.048,1.977,1.917,1.865,1.814,1.805,1.811,1.867,1.91,1.878,1.846,1.818,1.816,1.793,1.783,1.819,1.822,1.733,1.708,1.751,1.713,1.688,1.678,1.667,1.712,1.768,1.754,1.733,1.696,1.623,1.627,1.684,1.655,1.634,1.712,1.764,1.794,1.733,1.711,1.786,1.824,1.904,1.894,1.837,1.929,2.078,2.145,2.133,2.143,2.189,2.251,2.303,2.239,2.204,2.258,2.295,2.379,2.533,2.677,2.728,2.729,2.723,2.754,2.724,2.551,2.316,2.107,2.0,1.881,1.728,1.644,1.613,1.618,1.673,1.709,1.695,1.741,1.733,1.713,1.802,1.878,1.943,1.917,1.893,1.887,1.839,1.885,1.867,1.84,1.845,1.718,1.6,1.549,1.523,1.543,1.651,1.828,2.0,2.147,2.247,2.311,2.376,2.451,2.512,2.478,2.317
2.317,2.255,2.221,2.196,2.136,2.124,2.083,1.986,2.02,2.087,2.179,2.274,2.317,2.315,2.286,2.229,2.127,1.979,1.908,1.918,1.962,2.015,2.067,2.04,2.036,2.021,1.977,1.919,1.902,1.913,1.958,1.972,1.898,1.839,1.86,1.89,1.874,1.867,1.894,1.868,1.785,1.744,1.757,1.725,1.698,1.661,1.62,1.609,1.629,1.65,1.649,1.602,1.529,1.532,1.577,1.562,1.577,1.684,1.756,1.841,1.831,1.821,1.896,1.953,2.009,2.014,1.985,2.058,2.198,2.265,2.252,2.25,2.263,2.306,2.378,2.335,2.262,2.247,2.261,2.322,2.42,2.511,2.579,2.658,2.728,2.747,2.702,2.567,2.353,2.146,2.003,1.847,1.696,1.637,1.633,1.668,1.727,1.715,1.668,1.692,1.714,1.703,1.748,1.832,1.925,1.94,1.917,1.881,1.847,1.89,1.875,1.857,1.878,1.786,1.612,1.543,1.567,1.65,1.778,1.921,2.068,2.241,2.379,2.433,2.446,2.475,2.534,2.541,2.387
2.31,2.319,2.227,2.125,2.055,2.066,2.029,1.975,2.052,2.081,2.117,2.172,2.179,2.182,2.175,2.134,2.047,1.96,1.966,2.018,2.057,2.121,2.164,2.1,2.06,2.042,2.017,1.977,1.944,1.983,2.009,2.004,1.962,1.886,1.88,1.903,1.912,1.912,1.887,1.864,1.831,1.762,1.746,1.775,1.739,1.656,1.631,1.612,1.552,1.543,1.529,1.465,1.403,1.417,1.492,1.514,1.584,1.733,1.791,1.859,1.896,1.909,1.983,2.077,2.111,2.157,2.181,2.208,2.314,2.335,2.3,2.318,2.34,2.327,2.356,2.347,2.27,2.229,2.274,2.327,2.321,2.326,2.446,2.623,2.747,2.708,2.621,2.52,2.336,2.159,1.966,1.776,1.692,1.665,1.599,1.623,1.716,1.696,1.635,1.629,1.712,1.772,1.81,1.889,1.935,1.996,1.993,1.903,1.886,1.882,1.853,1.817,1.796,1.77,1.646,1.623,1.669,1.712,1.856,1.981,2.106,2.293,2.421,2.434,2.483,2.507,2.518,2.524,2.395
2.272,2.338,2.295,2.169,2.055,2.05,2.039,2.048,2.132,2.12,2.108,2.125,2.121,2.145,2.105,2.046,2.015,2.033,2.073,2.136,2.17,2.215,2.231,2.163,2.084,2.037,2.024,2.037,2.017,2.017,1.991,1.969,1.966,1.93,1.928,1.936,1.953,1.98,1.954,1.946,1.912,1.822,1.785,1.825,1.811,1.737,1.694,1.617,1.504,1.429,1.403,1.387,1.402,1.437,1.542,1.599,1.676,1.8,1.856,1.899,1.934,1.962,2.039,2.133,2.202,2.277,2.311,2.331,2.41,2.427,2.388,2.369,2.313,2.25,2.238,2.239,2.209,2.224,2.279,2.302,2.264,2.238,2.324,2.492,2.635,2.621,2.541,2.421,2.231,2.076,1.91,1.748,1.689,1.657,1.592,1.619,1.708,1.689,1.645,1.638,1.737,1.838,1.912,1.98,1.98,2.034,2.047,1.956,1.919,1.867,1.826,1.789,1.745,1.719,1.653,1.691,1.758,1.782,1.914,2.072,2.22,2.371,2.411,2.389,2.446,2.466,2.438,2.398,2.284
2.248,2.311,2.289,2.242,2.169,2.119,2.085,2.112,2.178,2.111,2.057,2.043,2.053,2.129,2.079,1.996,2.009,2.075,2.092,2.155,2.177,2.216,2.285,2.244,2.159,2.063,1.994,2.048,2.1,2.122,2.028,1.931,1.924,1.962,2.033,2.053,2.036,2.063,2.09,2.036,1.967,1.901,1.805,1.766,1.757,1.752,1.726,1.642,1.544,1.428,1.404,1.429,1.425,1.447,1.61,1.727,1.781,1.887,2.0,2.062,2.05,2.074,2.149,2.192,2.296,2.35,2.36,2.418,2.463,2.461,2.419,2.364,2.241,2.134,2.113,2.164,2.179,2.199,2.264,2.243,2.232,2.234,2.226,2.329,2.475,2.498,2.445,2.377,2.222,2.023,1.865,1.781,1.75,1.675,1.573,1.593,1.648,1.609,1.611,1.647,1.764,1.874,1.954,2.032,2.018,2.003,2.007,1.976,1.931,1.905,1.928,1.945,1.862,1.751,1.655,1.73,1.829,1.878,1.992,2.108,2.273,2.418,2.406,2.384,2.395,2.4,2.352,2.283,2.21
2.216,2.274,2.261,2.286,2.24,2.156,2.086,2.079,2.115,2.044,1.991,1.953,1.937,2.032,2.058,2.004,1.986,1.971,1.965,2.065,2.11,2.157,2.258,2.256,2.257,2.174,2.043,2.054,2.126,2.143,2.014,1.911,1.951,2.023,2.08,2.086,2.054,2.079,2.151,2.101,2.028,1.99,1.88,1.775,1.717,1.728,1.706,1.625,1.568,1.496,1.494,1.531,1.511,1.518,1.647,1.762,1.833,1.983,2.135,2.219,2.184,2.194,2.247,2.233,2.287,2.298,2.293,2.376,2.412,2.389,2.331,2.273,2.164,2.039,1.996,2.063,2.108,2.145,2.219,2.181,2.189,2.225,2.21,2.286,2.433,2.472,2.408,2.332,2.217,2.06,1.936,1.861,1.779,1.677,1.569,1.589,1.635,1.606,1.615,1.645,1.761,1.851,1.884,1.966,2.021,2.009,2.01,2.031,2.009,1.974,2.014,2.06,1.955,1.795,1.717,1.819,1.911,1.946,2.043,2.109,2.267,2.444,2.478,2.469,2.446,2.431,2.358,2.243,2.164
2.145,2.246,2.291,2.341,2.274,2.192,2.118,2.053,2.035,1.972,1.927,1.894,1.88,1.941,2.015,1.997,1.941,1.876,1.878,1.968,2.032,2.093,2.186,2.222,2.283,2.25,2.141,2.115,2.147,2.09,1.954,1.879,1.953,2.044,2.087,2.067,2.051,2.102,2.163,2.137,2.071,2.035,1.97,1.862,1.754,1.743,1.716,1.624,1.601,1.601,1.588,1.6,1.627,1.649,1.72,1.801,1.903,2.072,2.185,2.26,2.236,2.221,2.247,2.222,2.199,2.179,2.202,2.314,2.364,2.342,2.256,2.184,2.094,1.956,1.881,1.938,2.027,2.112,2.169,2.128,2.149,2.209,2.216,2.27,2.391,2.46,2.418,2.315,2.21,2.09,1.993,1.917,1.807,1.691,1.622,1.634,1.67,1.682,1.678,1.677,1.755,1.833,1.858,1.904,1.997,2.025,2.035,2.063,2.055,2.036,2.072,2.086,1.959,1.814,1.778,1.867,1.926,1.932,2.009,2.109,2.273,2.448,2.51,2.501,2.474,2.469,2.397,2.224,2.073
2.085,2.231,2.298,2.332,2.279,2.257,2.222,2.109,2.016,1.931,1.877,1.881,1.914,1.911,1.93,1.907,1.845,1.82,1.865,1.936,2.016,2.104,2.192,2.244,2.247,2.253,2.239,2.2,2.176,2.097,2.004,1.913,1.911,2.02,2.127,2.109,2.124,2.207,2.204,2.16,2.087,2.001,1.94,1.878,1.805,1.807,1.809,1.757,1.751,1.76,1.67,1.584,1.606,1.658,1.774,1.865,1.988,2.115,2.131,2.184,2.193,2.154,2.183,2.205,2.163,2.133,2.17,2.256,2.319,2.343,2.251,2.158,2.066,1.904,1.813,1.864,1.969,2.031,2.041,2.035,2.119,2.209,2.205,2.202,2.26,2.378,2.42,2.342,2.229,2.09,1.991,1.945,1.864,1.729,1.696,1.685,1.677,1.7,1.69,1.728,1.771,1.851,1.93,1.92,1.982,2.031,2.065,2.096,2.05,2.064,2.097,2.072,1.995,1.919,1.869,1.869,1.894,1.922,1.975,2.086,2.22,2.361,2.444,2.441,2.414,2.429,2.399,2.212,1.983
2.052,2.204,2.241,2.255,2.232,2.246,2.241,2.145,2.034,1.94,1.904,1.92,1.941,1.915,1.873,1.812,1.739,1.725,1.797,1.952,2.081,2.17,2.23,2.267,2.245,2.274,2.298,2.254,2.213,2.176,2.116,2.014,1.968,2.048,2.14,2.133,2.172,2.256,2.218,2.164,2.095,1.977,1.868,1.844,1.852,1.895,1.93,1.92,1.9,1.848,1.707,1.565,1.522,1.569,1.735,1.853,1.969,2.064,2.044,2.079,2.095,2.075,2.139,2.193,2.189,2.173,2.162,2.148,2.201,2.286,2.239,2.168,2.088,1.905,1.779,1.806,1.871,1.872,1.881,1.948,2.089,2.21,2.219,2.191,2.208,2.309,2.342,2.26,2.157,2.064,1.983,1.913,1.797,1.669,1.666,1.683,1.687,1.704,1.695,1.762,1.818,1.899,1.984,1.978,2.042,2.096,2.148,2.199,2.113,2.02,1.994,1.995,2.016,1.993,1.946,1.903,1.892,1.922,1.982,2.024,2.094,2.222,2.346,2.381,2.365,2.359,2.312,2.147,1.963
2.005,2.14,2.197,2.224,2.225,2.225,2.199,2.104,2.006,1.909,1.914,1.978,1.998,1.953,1.903,1.803,1.687,1.67,1.751,1.95,2.105,2.167,2.194,2.259,2.262,2.285,2.352,2.369,2.3,2.266,2.226,2.14,2.051,2.045,2.133,2.167,2.211,2.282,2.204,2.097,2.041,1.939,1.812,1.819,1.911,1.969,2.002,1.997,1.937,1.863,1.715,1.533,1.465,1.532,1.719,1.83,1.901,1.965,1.994,2.025,2.018,2.018,2.12,2.214,2.248,2.247,2.209,2.127,2.155,2.263,2.244,2.195,2.133,1.95,1.835,1.825,1.834,1.802,1.806,1.927,2.05,2.151,2.206,2.175,2.184,2.215,2.216,2.201,2.091,1.946,1.839,1.748,1.629,1.544,1.556,1.615,1.696,1.769,1.787,1.847,1.898,1.946,2.023,2.07,2.131,2.148,2.165,2.207,2.154,1.992,1.927,1.941,1.952,1.933,1.876,1.834,1.83,1.868,1.944,1.941,1.995,2.101,2.219,2.319,2.302,2.25,2.16,2.027,1.985
2.0,2.113,2.17,2.208,2.183,2.156,2.152,2.122,2.057,1.973,2.0,2.077,2.07,2.004,1.959,1.844,1.718,1.716,1.776,1.887,2.0,2.068,2.13,2.242,2.322,2.372,2.457,2.495,2.414,2.326,2.267,2.206,2.129,2.081,2.172,2.216,2.247,2.301,2.201,2.055,2.0,1.936,1.849,1.852,1.894,1.917,1.96,1.986,1.926,1.871,1.733,1.542,1.478,1.549,1.687,1.761,1.819,1.908,1.979,2.019,2.0,2.005,2.122,2.231,2.245,2.239,2.249,2.235,2.25,2.307,2.267,2.221,2.17,1.994,1.862,1.816,1.815,1.804,1.791,1.905,2.0,2.083,2.158,2.13,2.171,2.184,2.139,2.098,1.973,1.831,1.733,1.65,1.557,1.508,1.536,1.628,1.735,1.805,1.854,1.941,2.0,2.028,2.088,2.141,2.175,2.156,2.134,2.164,2.158,2.047,2.0,1.999,1.944,1.883,1.766,1.71,1.701,1.719,1.818,1.897,2.0,2.074,2.132,2.246,2.222,2.156,2.075,2.009,2.053
2.014,2.113,2.158,2.18,2.138,2.116,2.148,2.172,2.126,2.085,2.139,2.183,2.122,2.057,1.975,1.862,1.759,1.731,1.764,1.822,1.897,1.984,2.128,2.275,2.374,2.443,2.541,2.597,2.532,2.401,2.332,2.284,2.206,2.161,2.23,2.277,2.3,2.326,2.235,2.067,1.957,1.885,1.84,1.841,1.857,1.887,1.96,2.012,1.962,1.866,1.734,1.571,1.504,1.564,1.649,1.717,1.795,1.871,1.93,1.966,1.964,1.983,2.107,2.231,2.271,2.273,2.298,2.315,2.321,2.336,2.302,2.27,2.213,2.049,1.862,1.771,1.777,1.789,1.765,1.873,1.982,2.064,2.126,2.109,2.161,2.186,2.115,1.97,1.804,1.699,1.642,1.573,1.498,1.468,1.545,1.671,1.779,1.837,1.921,2.042,2.11,2.136,2.183,2.207,2.193,2.17,2.175,2.2,2.178,2.107,2.09,2.08,1.992,1.886,1.729,1.627,1.569,1.584,1.732,1.901,2.02,2.066,2.093,2.185,2.141,2.078,2.046,2.039,2.092
1.964,2.064,2.148,2.144,2.114,2.113,2.139,2.133,2.08,2.072,2.161,2.186,2.122,2.084,1.954,1.869,1.822,1.748,1.769,1.865,1.927,1.982,2.132,2.294,2.393,2.47,2.572,2.633,2.587,2.466,2.44,2.419,2.321,2.286,2.291,2.343,2.352,2.293,2.221,2.073,1.896,1.791,1.8,1.834,1.876,1.945,2.024,2.034,1.972,1.843,1.755,1.641,1.56,1.624,1.679,1.769,1.87,1.878,1.893,1.906,1.921,1.936,2.023,2.167,2.292,2.321,2.342,2.381,2.388,2.356,2.344,2.311,2.189,2.038,1.87,1.768,1.76,1.765,1.749,1.838,1.954,2.024,2.056,2.063,2.085,2.111,2.096,1.951,1.73,1.587,1.545,1.504,1.459,1.441,1.511,1.632,1.762,1.883,2.016,2.161,2.231,2.26,2.316,2.333,2.263,2.254,2.3,2.254,2.148,2.066,2.082,2.074,1.965,1.824,1.685,1.531,1.42,1.512,1.734,1.907,1.973,1.996,2.027,2.095,2.054,2.024,2.053,2.058,2.07
1.926,2.031,2.129,2.13,2.095,2.081,2.104,2.109,2.056,2.033,2.116,2.157,2.109,2.051,1.923,1.867,1.869,1.848,1.872,1.953,2.002,2.015,2.091,2.242,2.401,2.515,2.591,2.585,2.53,2.456,2.484,2.517,2.467,2.418,2.358,2.375,2.345,2.208,2.105,2.014,1.883,1.807,1.865,1.925,1.912,1.944,2.011,2.003,1.939,1.87,1.817,1.703,1.62,1.695,1.726,1.781,1.867,1.896,1.922,1.937,1.93,1.893,1.916,2.058,2.192,2.245,2.336,2.482,2.507,2.407,2.341,2.261,2.082,1.934,1.848,1.779,1.745,1.731,1.733,1.789,1.861,1.897,1.904,1.916,1.955,1.995,2.025,1.945,1.734,1.605,1.586,1.577,1.581,1.579,1.565,1.629,1.747,1.884,2.051,2.25,2.344,2.384,2.458,2.491,2.411,2.375,2.37,2.246,2.099,2.004,2.026,2.031,1.93,1.782,1.634,1.465,1.36,1.491,1.716,1.851,1.89,1.903,1.917,1.974,1.986,2.011,2.079,2.102,2.091
1.98,2.121,2.214,2.26,2.232,2.166,2.144,2.156,2.117,2.102,2.112,2.134,2.108,1.99,1.908,1.863,1.834,1.87,1.927,1.97,1.981,1.999,2.055,2.156,2.319,2.426,2.5,2.548,2.509,2.445,2.466,2.506,2.482,2.415,2.357,2.372,2.35,2.185,2.022,1.931,1.843,1.815,1.915,1.95,1.907,1.934,2.0,2.0,1.936,1.871,1.819,1.734,1.681,1.723,1.697,1.721,1.792,1.837,1.902,1.975,1.943,1.882,1.906,2.0,2.089,2.174,2.296,2.464,2.514,2.367,2.249,2.17,2.03,1.917,1.883,1.802,1.703,1.686,1.743,1.811,1.808,1.773,1.742,1.758,1.847,1.922,1.961,1.891,1.718,1.643,1.625,1.615,1.698,1.759,1.725,1.718,1.792,1.951,2.143,2.293,2.412,2.501,2.55,2.588,2.521,2.444,2.395,2.291,2.158,2.04,2.013,2.008,1.949,1.827,1.702,1.532,1.434,1.551,1.709,1.816,1.83,1.84,1.886,1.934,1.994,2.014,2.058,2.136,2.132
2.083,2.223,2.286,2.368,2.39,2.322,2.256,2.216,2.166,2.181,2.161,2.152,2.115,1.965,1.905,1.867,1.812,1.855,1.921,1.97,1.972,2.004,2.075,2.142,2.267,2.345,2.401,2.458,2.45,2.45,2.492,2.522,2.485,2.394,2.284,2.272,2.285,2.177,2.019,1.951,1.89,1.864,1.929,1.924,1.912,1.966,2.015,1.996,1.937,1.849,1.784,1.702,1.633,1.647,1.652,1.702,1.773,1.836,1.948,2.043,2.0,1.93,1.937,1.991,2.107,2.223,2.302,2.384,2.422,2.297,2.189,2.105,1.972,1.91,1.9,1.809,1.699,1.699,1.747,1.773,1.71,1.665,1.673,1.685,1.735,1.802,1.862,1.821,1.692,1.659,1.641,1.612,1.704,1.813,1.879,1.892,1.929,2.058,2.244,2.371,2.506,2.617,2.641,2.666,2.602,2.512,2.43,2.312,2.21,2.156,2.133,2.118,2.083,1.977,1.834,1.644,1.515,1.553,1.646,1.766,1.784,1.776,1.816,1.87,1.974,1.992,2.0,2.076,2.086
2.14,2.255,2.331,2.443,2.521,2.494,2.412,2.307,2.235,2.211,2.169,2.14,2.082,1.948,1.912,1.882,1.852,1.913,1.959,2.011,2.032,2.045,2.058,2.1,2.199,2.274,2.314,2.346,2.376,2.453,2.522,2.536,2.458,2.348,2.183,2.144,2.179,2.137,2.027,2.013,1.973,1.918,1.926,1.914,1.947,2.0,1.996,1.943,1.913,1.821,1.725,1.638,1.559,1.546,1.61,1.693,1.769,1.866,2.015,2.131,2.107,2.045,2.02,2.027,2.137,2.26,2.306,2.303,2.298,2.226,2.149,2.05,1.916,1.9,1.94,1.877,1.773,1.756,1.749,1.723,1.635,1.583,1.614,1.641,1.657,1.688,1.75,1.776,1.722,1.724,1.718,1.684,1.726,1.836,1.974,2.024,2.056,2.137,2.26,2.411,2.564,2.67,2.678,2.663,2.606,2.53,2.438,2.315,2.23,2.23,2.215,2.198,2.209,2.117,1.924,1.715,1.572,1.534,1.567,1.659,1.689,1.697,1.748,1.817,1.937,1.958,1.945,1.994,2.02
2.211,2.282,2.397,2.546,2.627,2.629,2.568,2.464,2.395,2.292,2.199,2.14,2.06,1.975,1.956,1.908,1.89,1.96,1.99,2.014,2.049,2.062,2.037,2.058,2.127,2.212,2.272,2.334,2.399,2.428,2.441,2.436,2.356,2.263,2.148,2.123,2.145,2.103,2.021,2.008,1.956,1.884,1.905,1.936,1.984,1.994,1.936,1.889,1.891,1.797,1.656,1.583,1.535,1.479,1.518,1.587,1.677,1.819,1.979,2.157,2.197,2.196,2.208,2.149,2.142,2.233,2.281,2.239,2.186,2.122,2.04,1.974,1.945,1.965,2.043,2.004,1.877,1.801,1.752,1.723,1.639,1.557,1.574,1.648,1.71,1.704,1.692,1.728,1.769,1.785,1.779,1.793,1.835,1.914,2.021,2.068,2.13,2.195,2.208,2.318,2.461,2.575,2.6,2.532,2.501,2.451,2.398,2.382,2.316,2.305,2.241,2.172,2.192,2.126,1.969,1.811,1.696,1.616,1.579,1.589,1.627,1.677,1.741,1.815,1.915,1.923,1.894,1.935,1.975
2.304,2.319,2.396,2.556,2.635,2.637,2.608,2.565,2.511,2.399,2.266,2.164,2.088,2.037,2.006,1.931,1.893,1.959,2.025,2.071,2.096,2.118,2.131,2.148,2.211,2.292,2.338,2.385,2.447,2.417,2.373,2.369,2.361,2.313,2.237,2.208,2.197,2.12,2.036,2.008,1.941,1.875,1.929,1.985,1.999,1.986,1.935,1.883,1.848,1.764,1.645,1.574,1.502,1.432,1.435,1.501,1.62,1.789,1.937,2.126,2.206,2.258,2.32,2.262,2.192,2.224,2.255,2.238,2.198,2.095,1.992,1.957,1.996,2.039,2.114,2.071,1.936,1.84,1.783,1.739,1.657,1.605,1.676,1.765,1.815,1.777,1.728,1.741,1.792,1.801,1.791,1.833,1.913,1.972,2.029,2.053,2.117,2.172,2.147,2.193,2.312,2.451,2.525,2.471,2.451,2.42,2.404,2.444,2.405,2.401,2.314,2.175,2.103,2.043,1.979,1.878,1.779,1.692,1.633,1.633,1.68,1.711,1.714,1.768,1.874,1.89,1.852,1.858,1.877
2.313,2.299,2.387,2.514,2.602,2.63,2.633,2.627,2.573,2.441,2.251,2.098,2.045,2.019,1.986,1.927,1.924,2.029,2.134,2.207,2.226,2.238,2.222,2.2,2.247,2.362,2.432,2.472,2.541,2.535,2.453,2.39,2.41,2.434,2.401,2.33,2.283,2.208,2.101,1.998,1.951,1.923,1.946,1.994,2.001,2.014,1.972,1.868,1.817,1.75,1.623,1.538,1.476,1.413,1.422,1.5,1.605,1.766,1.916,2.058,2.148,2.231,2.325,2.355,2.259,2.198,2.214,2.267,2.274,2.176,2.07,2.018,2.07,2.148,2.146,2.097,2.044,1.94,1.842,1.797,1.777,1.761,1.826,1.902,1.936,1.903,1.866,1.816,1.791,1.806,1.86,1.887,1.895,1.938,1.969,1.967,2.03,2.097,2.082,2.096,2.23,2.413,2.52,2.475,2.399,2.408,2.473,2.529,2.474,2.392,2.314,2.198,2.07,1.985,1.896,1.794,1.713,1.652,1.624,1.682,1.756,1.788,1.772,1.787,1.844,1.874,1.868,1.81,1.762
2.267,2.236,2.31,2.408,2.507,2.556,2.571,2.574,2.534,2.452,2.267,2.093,2.05,2.032,2.013,1.977,1.976,2.052,2.166,2.248,2.267,2.279,2.251,2.212,2.251,2.386,2.48,2.542,2.629,2.634,2.533,2.43,2.43,2.477,2.458,2.363,2.305,2.246,2.13,2.021,2.0,1.962,1.897,1.902,1.903,1.931,1.901,1.809,1.783,1.734,1.6,1.532,1.526,1.474,1.5,1.586,1.635,1.695,1.818,1.917,2.0,2.09,2.204,2.304,2.289,2.239,2.23,2.264,2.313,2.323,2.267,2.18,2.181,2.265,2.25,2.216,2.194,2.066,1.96,1.966,2.0,1.988,2.017,2.059,2.01,1.945,1.929,1.874,1.802,1.794,1.867,1.882,1.844,1.867,1.884,1.867,1.925,2.011,2.03,2.097,2.267,2.431,2.472,2.428,2.387,2.451,2.522,2.509,2.43,2.323,2.267,2.171,2.014,1.91,1.828,1.738,1.668,1.638,1.646,1.682,1.733,1.77,1.763,1.748,1.758,1.789,1.84,1.833,1.78
2.261,2.211,2.224,2.316,2.393,2.433,2.461,2.486,2.476,2.469,2.315,2.144,2.108,2.086,2.07,2.045,2.017,2.024,2.133,2.212,2.23,2.246,2.258,2.259,2.326,2.444,2.522,2.577,2.665,2.645,2.571,2.516,2.505,2.507,2.485,2.39,2.302,2.236,2.144,2.099,2.083,1.996,1.871,1.846,1.803,1.784,1.772,1.751,1.738,1.729,1.644,1.598,1.593,1.54,1.57,1.636,1.653,1.65,1.699,1.761,1.86,1.961,2.066,2.187,2.283,2.306,2.297,2.297,2.359,2.442,2.413,2.304,2.288,2.373,2.415,2.383,2.311,2.177,2.119,2.161,2.177,2.146,2.165,2.179,2.08,1.986,1.946,1.872,1.807,1.799,1.827,1.836,1.824,1.801,1.807,1.811,1.866,1.942,1.991,2.116,2.272,2.384,2.395,2.361,2.381,2.447,2.489,2.478,2.408,2.293,2.215,2.097,1.917,1.803,1.762,1.701,1.659,1.683,1.716,1.716,1.721,1.728,1.712,1.693,1.694,1.699,1.751,1.822,1.838
2.241,2.203,2.199,2.307,2.387,2.427,2.476,2.529,2.537,2.5,2.329,2.151,2.086,2.04,2.026,2.024,2.04,2.097,2.198,2.259,2.272,2.25,2.247,2.318,2.407,2.472,2.543,2.62,2.686,2.665,2.674,2.701,2.633,2.53,2.496,2.402,2.28,2.247,2.21,2.174,2.11,1.993,1.9,1.899,1.849,1.767,1.739,1.729,1.688,1.695,1.681,1.657,1.619,1.556,1.583,1.603,1.63,1.676,1.662,1.69,1.821,1.938,2.026,2.14,2.239,2.283,2.323,2.369,2.406,2.469,2.415,2.295,2.323,2.44,2.53,2.47,2.355,2.289,2.292,2.308,2.241,2.169,2.179,2.18,2.111,2.032,1.965,1.874,1.838,1.865,1.822,1.795,1.807,1.742,1.743,1.795,1.865,1.93,1.983,2.11,2.182,2.236,2.3,2.292,2.344,2.375,2.396,2.472,2.442,2.32,2.194,2.063,1.912,1.797,1.73,1.675,1.652,1.678,1.707,1.751,1.749,1.719,1.72,1.724,1.72,1.672,1.647,1.718,1.83
2.181,2.165,2.186,2.293,2.415,2.487,2.552,2.616,2.621,2.546,2.364,2.166,2.035,1.964,1.952,1.974,2.056,2.195,2.279,2.316,2.328,2.292,2.259,2.332,2.4,2.446,2.54,2.66,2.708,2.685,2.713,2.733,2.614,2.474,2.42,2.328,2.23,2.243,2.221,2.136,2.037,1.94,1.91,1.94,1.927,1.836,1.76,1.698,1.654,1.645,1.627,1.628,1.632,1.576,1.585,1.572,1.58,1.647,1.666,1.708,1.815,1.918,2.025,2.15,2.217,2.246,2.309,2.38,2.4,2.443,2.379,2.259,2.298,2.43,2.522,2.48,2.418,2.42,2.418,2.389,2.289,2.195,2.18,2.168,2.082,1.994,1.962,1.946,1.91,1.887,1.803,1.76,1.784,1.751,1.748,1.782,1.855,1.945,1.982,2.056,2.074,2.084,2.125,2.134,2.259,2.342,2.369,2.421,2.404,2.332,2.232,2.103,1.959,1.86,1.817,1.797,1.765,1.706,1.692,1.746,1.76,1.732,1.736,1.739,1.718,1.651,1.615,1.69,1.822
2.162,2.208,2.223,2.266,2.412,2.499,2.539,2.596,2.584,2.515,2.383,2.191,2.015,1.965,1.943,1.951,2.067,2.22,2.256,2.291,2.329,2.325,2.284,2.31,2.407,2.465,2.541,2.643,2.619,2.57,2.61,2.607,2.472,2.362,2.325,2.264,2.207,2.194,2.149,2.087,1.987,1.878,1.899,1.972,2.008,1.893,1.732,1.639,1.637,1.639,1.576,1.538,1.583,1.604,1.606,1.57,1.551,1.585,1.678,1.798,1.842,1.896,2.029,2.138,2.239,2.299,2.347,2.387,2.388,2.418,2.346,2.249,2.275,2.339,2.429,2.439,2.45,2.527,2.506,2.414,2.319,2.248,2.198,2.147,2.064,1.988,1.974,2.003,1.968,1.917,1.817,1.74,1.768,1.813,1.841,1.819,1.828,1.925,1.992,1.969,1.952,1.956,1.934,1.97,2.112,2.268,2.382,2.445,2.435,2.312,2.217,2.105,1.969,1.92,1.894,1.916,1.904,1.795,1.766,1.786,1.832,1.842,1.778,1.742,1.714,1.655,1.664,1.766,1.838
2.239,2.291,2.251,2.246,2.372,2.446,2.477,2.554,2.527,2.416,2.294,2.144,2.017,2.001,2.008,2.009,2.089,2.17,2.168,2.175,2.216,2.258,2.271,2.29,2.426,2.505,2.553,2.602,2.52,2.438,2.469,2.47,2.385,2.31,2.236,2.166,2.143,2.134,2.078,2.06,1.977,1.857,1.885,1.968,1.98,1.829,1.652,1.588,1.606,1.625,1.549,1.491,1.552,1.622,1.598,1.537,1.535,1.609,1.733,1.86,1.867,1.901,2.041,2.143,2.255,2.322,2.362,2.401,2.399,2.425,2.345,2.25,2.246,2.25,2.365,2.423,2.437,2.497,2.502,2.472,2.423,2.366,2.298,2.219,2.139,2.066,2.006,1.959,1.927,1.922,1.853,1.767,1.788,1.855,1.897,1.851,1.818,1.904,1.994,1.963,1.949,1.953,1.904,1.95,2.05,2.221,2.382,2.455,2.455,2.343,2.267,2.147,1.987,1.965,1.952,2.0,2.035,1.98,1.958,1.885,1.894,1.938,1.888,1.829,1.8,1.753,1.76,1.811,1.834
2.244,2.268,2.231,2.248,2.339,2.4,2.456,2.53,2.481,2.321,2.21,2.101,1.998,1.997,2.027,2.04,2.071,2.071,2.075,2.105,2.14,2.187,2.238,2.286,2.457,2.552,2.579,2.572,2.453,2.355,2.373,2.39,2.353,2.283,2.151,2.055,2.058,2.107,2.07,2.037,1.975,1.876,1.869,1.942,1.917,1.751,1.594,1.555,1.554,1.566,1.515,1.473,1.533,1.627,1.594,1.506,1.54,1.697,1.803,1.873,1.898,1.965,2.095,2.197,2.294,2.328,2.36,2.434,2.43,2.445,2.374,2.274,2.235,2.216,2.31,2.361,2.364,2.424,2.485,2.507,2.485,2.435,2.354,2.276,2.163,2.061,1.979,1.889,1.85,1.9,1.909,1.854,1.823,1.854,1.908,1.897,1.864,1.915,1.996,1.975,1.946,1.935,1.916,1.99,2.092,2.26,2.412,2.441,2.439,2.391,2.336,2.211,2.079,2.08,2.102,2.137,2.151,2.117,2.103,1.99,1.958,1.989,1.965,1.917,1.865,1.818,1.812,1.807,1.827
2.159,2.158,2.186,2.277,2.316,2.363,2.421,2.396,2.317,2.196,2.17,2.121,2.009,1.989,1.945,1.938,1.959,1.949,1.999,2.086,2.104,2.133,2.219,2.308,2.502,2.599,2.618,2.596,2.456,2.334,2.327,2.33,2.277,2.191,2.104,2.034,2.004,2.035,2.031,1.976,1.954,1.9,1.839,1.896,1.9,1.766,1.618,1.554,1.514,1.475,1.443,1.434,1.497,1.628,1.669,1.589,1.61,1.747,1.802,1.84,1.939,2.06,2.159,2.262,2.393,2.403,2.38,2.42,2.391,2.389,2.357,2.283,2.235,2.225,2.266,2.268,2.257,2.344,2.437,2.422,2.405,2.377,2.289,2.233,2.1,1.966,1.908,1.851,1.79,1.815,1.909,1.945,1.9,1.899,1.938,1.97,1.953,1.953,1.994,1.953,1.894,1.857,1.89,2.023,2.141,2.287,2.452,2.501,2.49,2.447,2.374,2.241,2.17,2.21,2.28,2.263,2.215,2.204,2.198,2.101,2.045,1.998,1.92,1.905,1.846,1.805,1.823,1.851,1.904
2.134,2.139,2.164,2.26,2.28,2.295,2.303,2.209,2.126,2.052,2.082,2.1,2.047,2.003,1.878,1.819,1.845,1.894,1.963,2.008,2.002,2.06,2.213,2.336,2.509,2.584,2.63,2.679,2.556,2.403,2.36,2.326,2.226,2.13,2.093,2.04,1.962,1.928,1.94,1.909,1.902,1.867,1.811,1.852,1.894,1.808,1.679,1.593,1.522,1.423,1.372,1.382,1.476,1.616,1.709,1.671,1.68,1.758,1.797,1.857,1.975,2.1,2.2,2.306,2.448,2.456,2.389,2.338,2.27,2.265,2.259,2.221,2.207,2.205,2.247,2.231,2.173,2.183,2.245,2.256,2.274,2.271,2.203,2.147,2.024,1.893,1.826,1.763,1.714,1.709,1.806,1.913,1.974,2.005,2.0,2.013,2.003,1.99,1.997,1.971,1.936,1.906,1.947,2.096,2.163,2.261,2.435,2.552,2.572,2.549,2.474,2.32,2.213,2.262,2.342,2.308,2.272,2.323,2.312,2.158,2.039,1.942,1.85,1.858,1.849,1.82,1.838,1.893,1.972
2.077,2.125,2.113,2.16,2.203,2.174,2.128,2.082,2.036,2.026,2.042,2.085,2.096,2.001,1.89,1.802,1.756,1.834,1.935,1.948,1.943,2.034,2.217,2.378,2.535,2.583,2.635,2.713,2.628,2.496,2.446,2.407,2.306,2.184,2.087,2.027,1.972,1.921,1.919,1.91,1.927,1.912,1.855,1.843,1.832,1.783,1.737,1.669,1.542,1.453,1.406,1.41,1.51,1.59,1.655,1.64,1.67,1.768,1.824,1.922,1.996,2.068,2.19,2.306,2.468,2.519,2.428,2.286,2.209,2.199,2.195,2.182,2.192,2.189,2.219,2.209,2.159,2.087,2.051,2.059,2.121,2.167,2.116,1.997,1.848,1.766,1.678,1.576,1.602,1.643,1.711,1.814,1.943,2.038,2.065,2.077,2.049,1.99,1.986,1.964,1.972,1.981,2.022,2.164,2.188,2.251,2.394,2.543,2.643,2.607,2.492,2.374,2.272,2.258,2.361,2.358,2.339,2.392,2.321,2.135,1.976,1.837,1.775,1.8,1.802,1.797,1.838,1.875,1.948
2.0,2.084,2.079,2.077,2.086,2.023,1.952,1.932,1.921,1.979,2.0,2.042,2.079,1.982,1.921,1.844,1.755,1.815,1.925,1.975,2.0,2.061,2.166,2.33,2.522,2.589,2.638,2.713,2.661,2.569,2.533,2.49,2.378,2.245,2.118,2.055,2.027,1.994,1.979,1.974,2.0,1.972,1.869,1.83,1.833,1.811,1.788,1.71,1.562,1.504,1.467,1.436,1.475,1.497,1.545,1.545,1.605,1.756,1.839,1.954,2.0,2.061,2.228,2.347,2.461,2.506,2.452,2.357,2.293,2.279,2.267,2.253,2.251,2.214,2.14,2.083,2.056,1.999,1.929,1.926,2.0,2.066,2.021,1.873,1.704,1.651,1.579,1.5,1.573,1.667,1.733,1.797,1.882,1.985,2.017,2.028,2.021,2.014,2.038,1.993,2.0,2.029,2.07,2.199,2.246,2.322,2.407,2.481,2.617,2.635,2.533,2.45,2.371,2.306,2.344,2.322,2.296,2.323,2.237,2.128,2.0,1.832,1.755,1.775,1.73,1.71,1.776,1.826,1.884
1.919,1.998,1.995,1.953,1.926,1.857,1.792,1.79,1.809,1.896,1.928,1.977,2.044,1.982,1.923,1.844,1.781,1.854,1.94,1.997,2.02,2.038,2.09,2.246,2.443,2.552,2.629,2.709,2.704,2.67,2.621,2.546,2.441,2.317,2.183,2.092,2.048,2.018,2.006,2.036,2.052,2.003,1.914,1.878,1.915,1.906,1.837,1.723,1.606,1.53,1.494,1.454,1.409,1.396,1.466,1.486,1.555,1.736,1.849,1.94,1.995,2.091,2.262,2.378,2.443,2.484,2.481,2.431,2.358,2.356,2.349,2.319,2.272,2.178,2.024,1.945,1.906,1.846,1.813,1.826,1.855,1.884,1.873,1.771,1.613,1.541,1.496,1.483,1.571,1.658,1.735,1.812,1.875,1.954,1.954,1.976,2.003,2.038,2.092,2.06,2.069,2.086,2.08,2.179,2.289,2.378,2.43,2.467,2.587,2.688,2.634,2.53,2.42,2.322,2.285,2.255,2.252,2.277,2.201,2.116,1.998,1.844,1.779,1.785,1.716,1.688,1.731,1.771,1.844
1.841,1.89,1.858,1.776,1.742,1.688,1.652,1.702,1.754,1.84,1.868,1.901,1.959,1.917,1.856,1.771,1.735,1.813,1.87,1.925,1.931,1.952,2.086,2.27,2.425,2.569,2.675,2.729,2.779,2.808,2.709,2.581,2.51,2.402,2.258,2.128,2.067,2.046,2.035,2.108,2.098,2.035,2.018,1.984,1.967,1.928,1.835,1.742,1.678,1.552,1.511,1.508,1.433,1.414,1.472,1.485,1.536,1.712,1.84,1.886,1.967,2.096,2.211,2.319,2.407,2.497,2.527,2.446,2.349,2.333,2.313,2.26,2.167,2.02,1.896,1.89,1.848,1.764,1.781,1.792,1.71,1.633,1.642,1.631,1.532,1.442,1.401,1.428,1.532,1.586,1.661,1.767,1.835,1.911,1.948,2.031,2.063,2.038,2.079,2.061,2.08,2.111,2.089,2.144,2.266,2.322,2.385,2.502,2.584,2.693,2.664,2.572,2.491,2.363,2.276,2.278,2.295,2.264,2.173,2.057,1.927,1.806,1.773,1.764,1.719,1.709,1.689,1.666,1.765
1.78,1.833,1.797,1.702,1.63,1.576,1.554,1.591,1.64,1.74,1.78,1.792,1.802,1.747,1.716,1.658,1.624,1.682,1.749,1.844,1.872,1.921,2.119,2.341,2.503,2.634,2.727,2.775,2.832,2.843,2.739,2.604,2.5,2.384,2.302,2.221,2.176,2.143,2.104,2.138,2.132,2.084,2.056,2.002,1.944,1.891,1.821,1.773,1.712,1.572,1.511,1.51,1.473,1.482,1.528,1.526,1.548,1.662,1.763,1.819,1.909,2.031,2.139,2.252,2.354,2.452,2.491,2.432,2.354,2.286,2.206,2.121,2.015,1.875,1.806,1.842,1.847,1.823,1.826,1.78,1.645,1.503,1.451,1.462,1.449,1.419,1.407,1.457,1.577,1.611,1.65,1.709,1.744,1.854,1.939,2.043,2.095,2.081,2.092,2.034,2.038,2.096,2.126,2.171,2.236,2.266,2.344,2.482,2.556,2.643,2.639,2.633,2.656,2.522,2.369,2.322,2.289,2.192,2.092,2.041,1.95,1.813,1.736,1.727,1.685,1.668,1.629,1.574,1.638
1.655,1.706,1.701,1.649,1.539,1.52,1.577,1.579,1.548,1.577,1.635,1.653,1.645,1.622,1.618,1.595,1.603,1.645,1.691,1.782,1.885,1.955,2.103,2.354,2.543,2.596,2.646,2.721,2.745,2.709,2.667,2.624,2.538,2.411,2.31,2.279,2.286,2.248,2.161,2.117,2.152,2.168,2.113,2.023,1.901,1.829,1.791,1.764,1.69,1.602,1.538,1.501,1.487,1.515,1.558,1.574,1.6,1.637,1.683,1.741,1.813,1.88,2.018,2.199,2.337,2.392,2.378,2.345,2.345,2.248,2.099,1.965,1.836,1.749,1.779,1.799,1.817,1.878,1.849,1.748,1.616,1.464,1.337,1.327,1.357,1.381,1.415,1.524,1.667,1.722,1.721,1.713,1.714,1.832,1.935,2.048,2.147,2.153,2.112,2.092,2.088,2.095,2.141,2.188,2.267,2.332,2.378,2.442,2.532,2.579,2.591,2.666,2.735,2.62,2.485,2.395,2.302,2.186,2.092,2.075,1.981,1.853,1.802,1.763,1.71,1.692,1.632,1.518,1.52
1.628,1.652,1.632,1.611,1.537,1.559,1.642,1.592,1.496,1.488,1.559,1.589,1.608,1.625,1.574,1.535,1.592,1.674,1.711,1.751,1.867,1.95,2.062,2.29,2.465,2.471,2.498,2.588,2.602,2.592,2.611,2.601,2.509,2.419,2.373,2.395,2.396,2.282,2.152,2.096,2.156,2.176,2.069,1.95,1.859,1.818,1.803,1.792,1.731,1.623,1.531,1.467,1.436,1.451,1.489,1.511,1.575,1.657,1.688,1.735,1.784,1.8,1.913,2.116,2.235,2.249,2.222,2.229,2.276,2.217,2.064,1.906,1.759,1.698,1.741,1.735,1.736,1.801,1.772,1.664,1.545,1.436,1.36,1.346,1.379,1.421,1.468,1.585,1.735,1.775,1.747,1.75,1.795,1.889,1.972,2.085,2.193,2.192,2.161,2.207,2.216,2.201,2.255,2.291,2.33,2.379,2.398,2.418,2.497,2.556,2.598,2.682,2.717,2.618,2.488,2.371,2.273,2.207,2.135,2.122,2.023,1.926,1.921,1.861,1.793,1.767,1.697,1.572,1.543
1.705,1.696,1.62,1.592,1.568,1.592,1.648,1.591,1.469,1.469,1.543,1.578,1.616,1.643,1.547,1.503,1.568,1.667,1.74,1.757,1.83,1.935,2.065,2.225,2.374,2.405,2.416,2.478,2.524,2.56,2.561,2.507,2.431,2.438,2.506,2.536,2.496,2.351,2.201,2.129,2.134,2.088,1.957,1.843,1.769,1.756,1.779,1.783,1.727,1.599,1.518,1.456,1.387,1.38,1.409,1.443,1.518,1.628,1.689,1.747,1.782,1.78,1.863,2.049,2.109,2.109,2.11,2.143,2.188,2.12,1.966,1.835,1.725,1.653,1.667,1.661,1.683,1.767,1.753,1.644,1.51,1.413,1.409,1.422,1.481,1.513,1.532,1.605,1.743,1.802,1.797,1.815,1.877,1.942,1.977,2.072,2.178,2.18,2.192,2.268,2.318,2.348,2.419,2.436,2.384,2.389,2.41,2.385,2.395,2.498,2.579,2.635,2.669,2.629,2.5,2.338,2.232,2.198,2.144,2.17,2.108,2.029,2.039,1.998,1.93,1.872,1.786,1.665,1.611
1.736,1.737,1.664,1.602,1.593,1.581,1.61,1.623,1.506,1.463,1.496,1.521,1.556,1.568,1.507,1.515,1.549,1.598,1.738,1.812,1.857,1.968,2.087,2.166,2.292,2.389,2.403,2.442,2.535,2.579,2.506,2.414,2.435,2.542,2.635,2.593,2.525,2.438,2.288,2.177,2.072,1.952,1.883,1.827,1.717,1.696,1.755,1.729,1.632,1.534,1.525,1.497,1.411,1.393,1.403,1.47,1.517,1.544,1.627,1.671,1.684,1.707,1.818,1.994,2.034,2.055,2.062,2.037,2.057,1.969,1.818,1.719,1.619,1.52,1.554,1.583,1.644,1.772,1.766,1.708,1.583,1.439,1.42,1.454,1.505,1.481,1.484,1.578,1.7,1.812,1.867,1.872,1.878,1.923,1.924,2.008,2.15,2.208,2.241,2.283,2.37,2.429,2.444,2.452,2.408,2.427,2.46,2.359,2.276,2.371,2.458,2.485,2.59,2.661,2.593,2.387,2.235,2.167,2.091,2.129,2.109,2.063,2.118,2.133,2.085,1.982,1.868,1.728,1.623
1.732,1.751,1.718,1.641,1.621,1.605,1.633,1.672,1.591,1.503,1.478,1.468,1.487,1.503,1.482,1.501,1.514,1.543,1.691,1.824,1.909,2.013,2.092,2.165,2.274,2.387,2.438,2.493,2.564,2.595,2.53,2.45,2.468,2.553,2.636,2.603,2.534,2.429,2.26,2.14,2.015,1.88,1.832,1.81,1.739,1.723,1.769,1.724,1.612,1.5,1.503,1.508,1.457,1.447,1.436,1.504,1.554,1.548,1.589,1.589,1.605,1.656,1.778,1.939,1.982,2.003,1.988,1.918,1.92,1.892,1.794,1.689,1.537,1.431,1.494,1.545,1.599,1.699,1.695,1.712,1.636,1.489,1.443,1.458,1.443,1.368,1.373,1.505,1.627,1.713,1.787,1.828,1.836,1.873,1.891,2.0,2.184,2.297,2.32,2.305,2.361,2.389,2.36,2.376,2.374,2.393,2.411,2.324,2.249,2.294,2.355,2.404,2.557,2.647,2.59,2.386,2.218,2.094,1.98,1.996,2.01,2.024,2.133,2.177,2.13,2.018,1.904,1.77,1.644
1.736,1.74,1.658,1.596,1.573,1.544,1.567,1.669,1.694,1.597,1.51,1.469,1.494,1.543,1.525,1.522,1.548,1.583,1.7,1.831,1.971,2.065,2.098,2.215,2.328,2.459,2.546,2.54,2.555,2.607,2.582,2.528,2.502,2.484,2.558,2.568,2.509,2.395,2.207,2.067,1.996,1.931,1.862,1.776,1.685,1.649,1.661,1.662,1.597,1.507,1.514,1.507,1.443,1.473,1.494,1.514,1.546,1.585,1.616,1.628,1.669,1.728,1.83,1.969,1.999,1.955,1.942,1.944,1.896,1.845,1.812,1.747,1.586,1.473,1.527,1.576,1.63,1.714,1.669,1.647,1.597,1.501,1.452,1.431,1.378,1.286,1.257,1.373,1.508,1.575,1.681,1.781,1.804,1.863,1.898,1.991,2.167,2.297,2.301,2.289,2.34,2.337,2.271,2.299,2.353,2.353,2.295,2.224,2.247,2.286,2.334,2.41,2.541,2.591,2.494,2.341,2.196,1.982,1.851,1.869,1.942,2.018,2.168,2.244,2.205,2.056,1.873,1.718,1.651
1.733,1.728,1.63,1.592,1.578,1.545,1.554,1.664,1.739,1.687,1.6,1.539,1.552,1.632,1.614,1.6,1.624,1.637,1.735,1.845,2.0,2.106,2.145,2.26,2.335,2.455,2.578,2.588,2.576,2.576,2.533,2.504,2.487,2.418,2.452,2.455,2.435,2.406,2.234,2.058,2.0,1.955,1.819,1.666,1.588,1.559,1.526,1.509,1.492,1.447,1.467,1.459,1.399,1.449,1.533,1.559,1.575,1.629,1.678,1.693,1.733,1.802,1.911,2.032,2.069,2.0,1.969,1.975,1.914,1.865,1.867,1.838,1.703,1.589,1.622,1.655,1.691,1.728,1.627,1.53,1.467,1.4,1.367,1.343,1.329,1.255,1.176,1.215,1.344,1.453,1.6,1.728,1.769,1.857,1.929,2.023,2.183,2.304,2.295,2.239,2.267,2.288,2.281,2.311,2.313,2.267,2.184,2.146,2.23,2.33,2.4,2.456,2.506,2.503,2.334,2.189,2.096,1.932,1.835,1.891,2.0,2.063,2.146,2.209,2.163,2.0,1.817,1.719,1.707
1.736,1.705,1.619,1.579,1.596,1.602,1.623,1.692,1.743,1.732,1.666,1.598,1.632,1.736,1.722,1.676,1.67,1.693,1.806,1.9,2.041,2.158,2.203,2.289,2.322,2.407,2.548,2.634,2.611,2.518,2.443,2.426,2.423,2.368,2.388,2.365,2.358,2.404,2.283,2.11,2.004,1.917,1.767,1.602,1.533,1.486,1.425,1.411,1.436,1.43,1.433,1.419,1.379,1.401,1.48,1.556,1.607,1.647,1.707,1.747,1.782,1.857,1.99,2.07,2.075,2.024,1.992,1.961,1.922,1.948,1.957,1.916,1.824,1.728,1.742,1.767,1.76,1.718,1.606,1.475,1.398,1.331,1.271,1.248,1.271,1.213,1.132,1.148,1.242,1.342,1.499,1.65,1.714,1.801,1.905,2.038,2.204,2.313,2.304,2.233,2.233,2.263,2.29,2.295,2.237,2.187,2.125,2.101,2.209,2.35,2.414,2.44,2.459,2.414,2.19,2.01,1.932,1.874,1.862,1.941,2.053,2.116,2.135,2.143,2.063,1.938,1.809,1.745,1.753
1.749,1.669,1.591,1.513,1.507,1.553,1.641,1.721,1.731,1.743,1.692,1.624,1.708,1.83,1.855,1.768,1.709,1.775,1.913,2.005,2.142,2.269,2.32,2.416,2.468,2.513,2.584,2.618,2.576,2.497,2.46,2.44,2.418,2.409,2.443,2.387,2.323,2.328,2.255,2.146,1.985,1.838,1.742,1.615,1.519,1.399,1.317,1.359,1.426,1.495,1.476,1.439,1.423,1.389,1.377,1.486,1.602,1.641,1.713,1.83,1.876,1.922,2.018,2.029,1.993,1.997,2.036,2.038,2.003,2.049,2.021,1.943,1.909,1.844,1.814,1.813,1.779,1.724,1.674,1.536,1.453,1.4,1.295,1.238,1.23,1.166,1.119,1.158,1.206,1.263,1.408,1.587,1.681,1.741,1.822,1.983,2.146,2.223,2.234,2.249,2.26,2.269,2.269,2.223,2.168,2.177,2.14,2.107,2.239,2.385,2.4,2.389,2.415,2.357,2.161,1.969,1.828,1.786,1.871,1.947,2.042,2.145,2.158,2.11,1.992,1.942,1.858,1.737,1.745
1.755,1.695,1.66,1.561,1.486,1.502,1.61,1.724,1.737,1.752,1.711,1.645,1.701,1.805,1.883,1.828,1.755,1.788,1.917,2.048,2.216,2.368,2.471,2.607,2.658,2.676,2.675,2.609,2.564,2.57,2.568,2.544,2.532,2.525,2.504,2.4,2.288,2.234,2.155,2.079,1.928,1.768,1.673,1.587,1.541,1.422,1.298,1.277,1.325,1.437,1.456,1.458,1.496,1.466,1.421,1.495,1.591,1.634,1.732,1.852,1.893,1.916,1.953,1.951,1.989,2.067,2.151,2.165,2.108,2.105,2.079,2.014,1.972,1.904,1.837,1.797,1.743,1.707,1.69,1.592,1.519,1.472,1.369,1.28,1.235,1.171,1.129,1.154,1.196,1.26,1.394,1.563,1.677,1.753,1.822,1.95,2.077,2.137,2.162,2.188,2.205,2.23,2.248,2.194,2.132,2.143,2.135,2.156,2.301,2.434,2.423,2.372,2.361,2.321,2.185,2.016,1.862,1.801,1.88,1.932,2.001,2.074,2.057,2.021,1.935,1.91,1.862,1.788,1.794
1.804,1.782,1.702,1.594,1.551,1.553,1.624,1.749,1.761,1.704,1.652,1.643,1.67,1.687,1.764,1.75,1.709,1.765,1.878,2.043,2.22,2.363,2.511,2.68,2.716,2.742,2.739,2.637,2.618,2.686,2.67,2.621,2.627,2.581,2.462,2.359,2.286,2.185,2.061,1.952,1.866,1.779,1.688,1.617,1.606,1.534,1.412,1.3,1.256,1.312,1.4,1.442,1.467,1.497,1.487,1.477,1.498,1.581,1.712,1.807,1.854,1.894,1.931,1.967,2.016,2.133,2.258,2.27,2.213,2.161,2.184,2.17,2.092,2.04,1.943,1.883,1.815,1.706,1.666,1.659,1.583,1.5,1.415,1.31,1.299,1.279,1.25,1.256,1.267,1.331,1.464,1.621,1.744,1.814,1.847,1.909,1.989,2.079,2.133,2.153,2.183,2.193,2.179,2.192,2.152,2.086,2.053,2.133,2.27,2.378,2.374,2.322,2.292,2.295,2.202,2.019,1.897,1.878,1.865,1.857,1.917,1.986,1.982,1.965,1.96,1.929,1.898,1.903,1.871
1.917,1.898,1.774,1.674,1.659,1.653,1.673,1.731,1.711,1.653,1.614,1.633,1.656,1.625,1.642,1.62,1.593,1.662,1.784,1.962,2.133,2.281,2.465,2.638,2.665,2.706,2.749,2.718,2.734,2.78,2.722,2.632,2.583,2.479,2.332,2.248,2.211,2.123,2.004,1.887,1.844,1.815,1.75,1.689,1.654,1.588,1.494,1.379,1.275,1.27,1.375,1.441,1.478,1.555,1.577,1.529,1.496,1.56,1.699,1.82,1.894,1.943,1.979,2.046,2.072,2.185,2.307,2.288,2.24,2.19,2.253,2.292,2.246,2.205,2.063,1.976,1.92,1.797,1.708,1.657,1.545,1.462,1.435,1.362,1.381,1.38,1.395,1.459,1.447,1.456,1.559,1.684,1.76,1.809,1.88,1.949,1.98,2.017,2.064,2.074,2.106,2.108,2.099,2.164,2.182,2.098,2.028,2.081,2.194,2.248,2.23,2.204,2.222,2.266,2.224,2.051,1.924,1.871,1.797,1.779,1.844,1.916,1.934,1.932,1.973,1.944,1.904,1.917,1.882
1.975,1.957,1.858,1.773,1.708,1.682,1.701,1.706,1.628,1.599,1.586,1.59,1.606,1.584,1.571,1.547,1.525,1.549,1.668,1.858,2.04,2.203,2.396,2.544,2.607,2.668,2.724,2.753,2.801,2.824,2.743,2.618,2.511,2.375,2.213,2.12,2.096,2.051,1.977,1.902,1.886,1.872,1.83,1.805,1.775,1.69,1.572,1.449,1.345,1.333,1.403,1.464,1.544,1.64,1.638,1.6,1.587,1.6,1.693,1.824,1.912,1.956,2.001,2.079,2.148,2.281,2.385,2.338,2.287,2.242,2.315,2.368,2.32,2.27,2.149,2.062,1.995,1.872,1.747,1.624,1.517,1.457,1.457,1.465,1.516,1.505,1.522,1.602,1.588,1.554,1.62,1.722,1.785,1.839,1.942,2.01,2.008,2.008,2.04,2.01,2.013,2.036,2.05,2.095,2.144,2.096,2.011,2.022,2.121,2.176,2.14,2.094,2.129,2.213,2.262,2.142,1.981,1.859,1.791,1.79,1.824,1.843,1.839,1.863,1.911,1.897,1.881,1.919,1.927
1.931,1.889,1.792,1.728,1.679,1.675,1.716,1.692,1.563,1.499,1.488,1.479,1.495,1.5,1.491,1.499,1.543,1.577,1.657,1.835,2.03,2.193,2.344,2.439,2.516,2.583,2.624,2.668,2.725,2.763,2.684,2.55,2.46,2.35,2.156,2.027,2.002,1.975,1.945,1.923,1.944,1.942,1.916,1.938,1.959,1.865,1.696,1.559,1.478,1.435,1.423,1.432,1.496,1.585,1.554,1.563,1.639,1.637,1.665,1.795,1.886,1.946,2.057,2.134,2.207,2.339,2.43,2.382,2.318,2.265,2.335,2.39,2.318,2.249,2.19,2.129,2.042,1.919,1.794,1.659,1.607,1.551,1.52,1.622,1.716,1.679,1.641,1.657,1.648,1.615,1.657,1.736,1.809,1.902,2.004,2.03,2.016,2.054,2.088,2.032,2.016,2.06,2.039,1.994,2.013,1.993,1.935,1.983,2.094,2.174,2.106,2.015,2.056,2.177,2.258,2.167,2.023,1.948,1.926,1.885,1.821,1.776,1.779,1.842,1.885,1.886,1.898,1.96,2.015
1.925,1.83,1.693,1.646,1.671,1.683,1.682,1.617,1.499,1.426,1.416,1.42,1.432,1.426,1.417,1.448,1.549,1.647,1.713,1.87,2.056,2.209,2.341,2.423,2.451,2.503,2.552,2.587,2.621,2.658,2.588,2.466,2.405,2.323,2.138,1.997,1.942,1.884,1.874,1.897,1.956,1.978,1.96,1.984,2.015,1.947,1.813,1.708,1.616,1.518,1.462,1.434,1.445,1.503,1.499,1.537,1.628,1.636,1.673,1.837,1.944,2.012,2.139,2.212,2.205,2.278,2.35,2.301,2.236,2.18,2.235,2.303,2.285,2.23,2.145,2.09,2.073,2.059,1.967,1.811,1.735,1.676,1.669,1.782,1.853,1.783,1.722,1.727,1.712,1.686,1.714,1.738,1.742,1.846,1.996,2.053,2.036,2.036,2.052,2.019,2.024,2.074,2.034,1.948,1.937,1.925,1.909,2.023,2.143,2.147,2.027,1.946,2.035,2.167,2.224,2.15,2.07,2.068,2.051,1.944,1.827,1.781,1.821,1.885,1.933,1.938,1.93,1.947,2.0
1.985,1.841,1.71,1.672,1.699,1.666,1.594,1.541,1.502,1.436,1.433,1.491,1.491,1.426,1.387,1.466,1.588,1.672,1.759,1.923,2.066,2.171,2.308,2.439,2.504,2.561,2.597,2.613,2.633,2.583,2.526,2.49,2.418,2.303,2.153,1.992,1.871,1.834,1.857,1.928,2.009,2.046,2.031,2.044,2.039,2.031,1.962,1.819,1.716,1.659,1.625,1.57,1.503,1.493,1.495,1.561,1.618,1.614,1.713,1.891,1.976,2.036,2.137,2.186,2.149,2.194,2.267,2.264,2.233,2.211,2.207,2.211,2.243,2.236,2.145,2.123,2.184,2.197,2.11,1.996,1.88,1.755,1.751,1.855,1.943,1.869,1.749,1.702,1.724,1.775,1.753,1.69,1.69,1.812,1.96,2.042,2.055,2.007,1.997,1.991,2.0,2.037,2.041,1.967,1.923,1.92,1.955,2.067,2.155,2.113,1.98,1.903,1.971,2.059,2.115,2.143,2.17,2.193,2.161,2.016,1.91,1.857,1.84,1.887,1.933,1.94,1.959,1.995,2.012
2.0,1.847,1.737,1.702,1.73,1.678,1.58,1.542,1.528,1.464,1.467,1.532,1.485,1.376,1.314,1.411,1.526,1.581,1.694,1.875,2.0,2.1,2.281,2.451,2.535,2.589,2.611,2.618,2.639,2.569,2.533,2.541,2.451,2.308,2.204,2.055,1.917,1.906,1.932,1.949,2.0,2.04,2.026,2.033,2.01,2.028,2.016,1.915,1.834,1.772,1.733,1.704,1.672,1.636,1.595,1.651,1.702,1.711,1.825,1.953,2.0,2.068,2.175,2.203,2.171,2.216,2.26,2.23,2.234,2.279,2.267,2.211,2.209,2.232,2.207,2.239,2.325,2.311,2.21,2.127,2.0,1.851,1.866,1.958,2.0,1.894,1.766,1.744,1.79,1.818,1.733,1.651,1.69,1.789,1.86,1.917,1.982,1.998,1.995,1.997,2.0,1.997,1.972,1.917,1.867,1.867,1.911,1.99,2.054,2.083,2.0,1.917,1.946,2.004,2.053,2.133,2.194,2.191,2.167,2.067,2.0,1.95,1.908,1.949,1.994,2.0,2.032,2.076,2.073
2.031,1.864,1.763,1.733,1.75,1.718,1.66,1.606,1.543,1.472,1.489,1.531,1.443,1.329,1.273,1.34,1.422,1.494,1.642,1.839,1.977,2.101,2.305,2.483,2.526,2.567,2.613,2.613,2.612,2.578,2.544,2.521,2.437,2.297,2.223,2.13,2.027,1.996,2.001,1.96,1.985,2.01,1.969,1.983,2.003,2.022,2.009,1.959,1.919,1.849,1.813,1.803,1.789,1.771,1.738,1.756,1.791,1.817,1.902,1.978,2.039,2.151,2.275,2.28,2.228,2.227,2.219,2.2,2.255,2.317,2.33,2.303,2.265,2.265,2.292,2.341,2.389,2.373,2.299,2.242,2.116,1.963,1.962,2.042,2.06,1.938,1.819,1.829,1.875,1.861,1.765,1.684,1.674,1.711,1.726,1.763,1.862,1.967,1.994,2.013,2.017,1.99,1.923,1.87,1.801,1.771,1.797,1.872,1.925,1.989,1.968,1.925,1.955,2.009,2.023,2.095,2.151,2.133,2.14,2.096,2.037,2.006,2.012,2.042,2.103,2.128,2.142,2.158,2.156
2.15,1.972,1.892,1.85,1.757,1.712,1.709,1.607,1.481,1.421,1.476,1.506,1.416,1.322,1.3,1.32,1.358,1.479,1.661,1.83,1.968,2.102,2.267,2.438,2.48,2.549,2.651,2.652,2.622,2.631,2.584,2.496,2.424,2.285,2.152,2.104,2.075,2.019,2.012,1.996,2.034,2.063,2.039,2.074,2.112,2.095,2.029,1.975,1.969,1.948,1.961,1.938,1.868,1.877,1.887,1.839,1.827,1.878,1.945,2.006,2.123,2.252,2.301,2.287,2.256,2.191,2.128,2.197,2.32,2.356,2.396,2.459,2.416,2.359,2.397,2.412,2.366,2.364,2.352,2.308,2.164,2.005,1.967,2.025,2.075,1.989,1.872,1.855,1.888,1.872,1.805,1.748,1.697,1.69,1.699,1.732,1.79,1.866,1.915,1.952,1.952,1.929,1.881,1.819,1.763,1.706,1.704,1.791,1.831,1.821,1.834,1.852,1.87,1.942,1.987,2.07,2.136,2.149,2.191,2.183,2.115,2.079,2.084,2.077,2.137,2.193,2.209,2.225,2.23
2.215,2.08,2.01,1.937,1.786,1.697,1.645,1.494,1.379,1.341,1.401,1.43,1.344,1.261,1.263,1.311,1.383,1.528,1.682,1.788,1.896,2.021,2.171,2.327,2.394,2.476,2.578,2.591,2.588,2.647,2.624,2.534,2.453,2.314,2.131,2.085,2.096,2.065,2.067,2.054,2.092,2.158,2.215,2.257,2.218,2.142,2.079,2.068,2.067,2.032,2.033,2.018,1.973,1.985,1.966,1.886,1.875,1.974,2.065,2.135,2.236,2.308,2.285,2.278,2.277,2.207,2.113,2.152,2.279,2.349,2.406,2.485,2.475,2.431,2.454,2.44,2.377,2.383,2.379,2.304,2.155,2.034,2.025,2.054,2.053,1.973,1.906,1.928,1.939,1.864,1.772,1.752,1.779,1.785,1.778,1.777,1.766,1.76,1.808,1.846,1.837,1.8,1.732,1.665,1.669,1.639,1.633,1.723,1.767,1.729,1.738,1.764,1.792,1.901,1.997,2.088,2.156,2.193,2.249,2.261,2.211,2.177,2.156,2.133,2.155,2.212,2.245,2.249,2.238
2.25,2.199,2.09,1.986,1.862,1.749,1.599,1.429,1.382,1.356,1.359,1.365,1.334,1.314,1.336,1.451,1.595,1.654,1.702,1.77,1.888,2.013,2.176,2.319,2.408,2.446,2.458,2.473,2.527,2.566,2.57,2.518,2.423,2.352,2.217,2.16,2.181,2.196,2.216,2.222,2.264,2.352,2.426,2.425,2.329,2.23,2.138,2.113,2.117,2.1,2.064,2.023,1.974,1.975,1.981,1.919,1.909,2.028,2.13,2.211,2.264,2.291,2.295,2.316,2.3,2.214,2.129,2.149,2.226,2.303,2.348,2.412,2.485,2.498,2.502,2.477,2.439,2.404,2.352,2.275,2.219,2.142,2.074,2.075,2.094,2.052,2.019,2.054,2.05,1.949,1.848,1.847,1.888,1.864,1.802,1.79,1.769,1.729,1.748,1.753,1.759,1.713,1.609,1.581,1.6,1.559,1.562,1.644,1.676,1.675,1.691,1.712,1.82,1.991,2.108,2.153,2.168,2.199,2.272,2.253,2.188,2.174,2.193,2.196,2.183,2.22,2.259,2.279,2.292
2.216,2.245,2.2,2.11,1.958,1.802,1.621,1.472,1.444,1.441,1.43,1.414,1.395,1.423,1.436,1.571,1.771,1.828,1.821,1.879,2.0,2.082,2.18,2.305,2.392,2.405,2.41,2.482,2.548,2.515,2.506,2.48,2.404,2.407,2.384,2.361,2.386,2.423,2.448,2.429,2.455,2.516,2.519,2.481,2.443,2.382,2.246,2.145,2.133,2.098,2.028,1.994,1.998,2.011,2.028,1.974,1.938,2.002,2.076,2.139,2.156,2.171,2.221,2.272,2.31,2.256,2.2,2.235,2.286,2.344,2.372,2.395,2.448,2.493,2.5,2.477,2.468,2.44,2.374,2.324,2.322,2.243,2.112,2.097,2.125,2.1,2.077,2.111,2.113,2.028,1.936,1.924,1.922,1.854,1.773,1.761,1.724,1.648,1.632,1.611,1.628,1.606,1.545,1.572,1.591,1.536,1.564,1.675,1.706,1.742,1.775,1.772,1.859,2.035,2.135,2.147,2.127,2.135,2.211,2.232,2.189,2.161,2.155,2.177,2.226,2.289,2.313,2.321,2.362
2.206,2.246,2.297,2.263,2.09,1.904,1.744,1.603,1.523,1.501,1.518,1.522,1.507,1.547,1.564,1.703,1.897,1.967,1.972,2.015,2.087,2.123,2.154,2.235,2.317,2.37,2.438,2.566,2.608,2.538,2.502,2.478,2.454,2.516,2.527,2.513,2.558,2.626,2.648,2.579,2.56,2.581,2.572,2.553,2.526,2.475,2.362,2.229,2.153,2.053,1.964,1.935,1.992,2.047,2.089,2.056,2.022,2.022,2.043,2.078,2.097,2.087,2.104,2.18,2.284,2.27,2.247,2.3,2.338,2.369,2.406,2.44,2.477,2.513,2.493,2.481,2.516,2.54,2.479,2.412,2.396,2.327,2.204,2.157,2.111,2.074,2.075,2.112,2.118,2.082,2.023,2.004,1.986,1.911,1.835,1.794,1.706,1.552,1.486,1.457,1.475,1.477,1.499,1.571,1.625,1.599,1.63,1.75,1.828,1.865,1.887,1.875,1.902,2.036,2.144,2.157,2.141,2.165,2.216,2.268,2.256,2.192,2.113,2.134,2.223,2.3,2.315,2.33,2.4
2.243,2.214,2.27,2.289,2.181,2.028,1.919,1.784,1.633,1.552,1.597,1.639,1.628,1.656,1.711,1.878,2.009,2.015,2.048,2.081,2.079,2.127,2.2,2.223,2.303,2.435,2.527,2.59,2.594,2.528,2.473,2.439,2.481,2.6,2.623,2.598,2.631,2.692,2.714,2.675,2.63,2.594,2.621,2.676,2.612,2.542,2.496,2.352,2.183,2.066,1.989,1.899,1.902,1.999,2.078,2.094,2.133,2.149,2.119,2.097,2.119,2.081,2.041,2.122,2.202,2.186,2.22,2.315,2.349,2.374,2.45,2.537,2.577,2.574,2.553,2.606,2.674,2.654,2.559,2.467,2.448,2.404,2.287,2.189,2.105,2.084,2.101,2.115,2.115,2.122,2.103,2.081,2.063,2.011,1.927,1.84,1.752,1.61,1.485,1.456,1.476,1.468,1.514,1.595,1.625,1.615,1.627,1.73,1.906,1.983,1.991,2.013,2.047,2.122,2.239,2.261,2.26,2.315,2.32,2.306,2.273,2.223,2.185,2.21,2.254,2.286,2.293,2.344,2.451
2.234,2.201,2.222,2.22,2.141,2.038,1.981,1.892,1.751,1.672,1.71,1.719,1.66,1.677,1.741,1.904,2.029,2.038,2.049,2.068,2.057,2.108,2.196,2.213,2.305,2.466,2.557,2.574,2.573,2.501,2.438,2.407,2.464,2.593,2.672,2.659,2.636,2.629,2.662,2.698,2.671,2.601,2.612,2.705,2.702,2.66,2.61,2.445,2.278,2.177,2.089,1.96,1.914,1.988,2.038,2.065,2.158,2.233,2.199,2.111,2.085,2.025,1.965,2.029,2.122,2.142,2.221,2.358,2.422,2.484,2.58,2.636,2.592,2.565,2.612,2.733,2.8,2.711,2.575,2.478,2.469,2.428,2.305,2.194,2.131,2.104,2.081,2.059,2.065,2.057,2.046,2.04,2.023,1.978,1.898,1.825,1.786,1.707,1.575,1.551,1.589,1.578,1.592,1.645,1.609,1.567,1.588,1.731,1.945,2.089,2.131,2.157,2.171,2.221,2.323,2.364,2.384,2.436,2.43,2.381,2.324,2.296,2.325,2.357,2.378,2.371,2.333,2.359,2.474
2.29,2.304,2.262,2.175,2.126,2.074,2.043,2.013,1.883,1.785,1.8,1.795,1.693,1.663,1.733,1.874,1.994,2.011,1.957,1.991,2.049,2.078,2.088,2.113,2.203,2.36,2.492,2.586,2.631,2.58,2.486,2.449,2.483,2.517,2.593,2.574,2.491,2.492,2.585,2.673,2.614,2.517,2.554,2.678,2.74,2.702,2.597,2.453,2.387,2.299,2.161,2.04,1.96,1.937,2.002,2.089,2.168,2.224,2.212,2.115,2.058,1.968,1.873,1.94,2.076,2.163,2.29,2.424,2.484,2.522,2.611,2.671,2.621,2.577,2.616,2.726,2.802,2.772,2.659,2.563,2.487,2.433,2.373,2.24,2.149,2.129,2.084,1.972,1.931,1.944,2.001,2.006,1.957,1.935,1.847,1.802,1.795,1.718,1.632,1.659,1.712,1.709,1.686,1.685,1.622,1.58,1.631,1.78,1.929,2.097,2.187,2.222,2.216,2.243,2.37,2.486,2.563,2.605,2.569,2.52,2.469,2.434,2.441,2.435,2.421,2.387,2.316,2.321,2.418
2.267,2.328,2.303,2.194,2.175,2.156,2.141,2.133,1.998,1.87,1.867,1.877,1.799,1.74,1.802,1.922,2.023,2.032,1.95,1.937,2.0,2.043,2.057,2.075,2.15,2.294,2.424,2.532,2.618,2.625,2.533,2.504,2.536,2.491,2.484,2.428,2.351,2.429,2.566,2.629,2.533,2.437,2.5,2.627,2.667,2.611,2.529,2.495,2.512,2.432,2.267,2.131,1.995,1.904,1.955,2.055,2.138,2.211,2.198,2.076,2.0,1.914,1.845,1.94,2.049,2.138,2.278,2.387,2.417,2.443,2.533,2.602,2.56,2.522,2.595,2.717,2.785,2.77,2.694,2.633,2.533,2.478,2.467,2.327,2.166,2.12,2.094,1.988,1.91,1.914,2.0,2.024,1.984,1.971,1.877,1.853,1.855,1.764,1.712,1.709,1.733,1.771,1.815,1.812,1.766,1.738,1.778,1.863,1.94,2.048,2.133,2.194,2.225,2.258,2.388,2.529,2.651,2.727,2.674,2.596,2.533,2.494,2.483,2.45,2.439,2.4,2.31,2.3,2.367
2.221,2.283,2.269,2.199,2.196,2.204,2.216,2.228,2.117,1.982,1.928,1.915,1.852,1.782,1.844,1.937,1.986,1.989,1.949,1.926,1.947,1.99,2.051,2.081,2.157,2.288,2.372,2.421,2.537,2.582,2.516,2.506,2.535,2.446,2.392,2.337,2.277,2.343,2.467,2.518,2.462,2.391,2.416,2.531,2.58,2.542,2.518,2.564,2.591,2.515,2.375,2.244,2.078,1.954,1.925,1.981,2.086,2.207,2.17,2.011,1.891,1.818,1.816,1.914,2.01,2.12,2.256,2.307,2.307,2.349,2.455,2.491,2.421,2.427,2.545,2.693,2.757,2.705,2.65,2.649,2.589,2.522,2.481,2.37,2.207,2.124,2.104,2.046,1.949,1.939,2.01,2.045,2.014,1.966,1.899,1.902,1.914,1.85,1.812,1.793,1.803,1.855,1.936,1.938,1.895,1.872,1.88,1.914,1.977,2.032,2.083,2.169,2.257,2.313,2.445,2.577,2.677,2.738,2.698,2.607,2.51,2.473,2.496,2.455,2.467,2.432,2.331,2.287,2.297
2.21,2.264,2.268,2.262,2.266,2.291,2.294,2.272,2.216,2.123,2.004,1.946,1.899,1.81,1.845,1.875,1.84,1.855,1.899,1.94,1.918,1.9,1.963,2.048,2.125,2.214,2.289,2.378,2.524,2.565,2.515,2.506,2.471,2.347,2.285,2.271,2.247,2.26,2.315,2.336,2.368,2.36,2.346,2.443,2.509,2.497,2.505,2.528,2.504,2.436,2.38,2.31,2.166,2.037,1.999,2.037,2.092,2.124,2.05,1.934,1.788,1.703,1.726,1.768,1.887,2.081,2.255,2.303,2.3,2.311,2.397,2.411,2.382,2.472,2.542,2.647,2.736,2.7,2.652,2.623,2.569,2.498,2.446,2.4,2.309,2.211,2.152,2.062,1.944,1.951,2.01,2.049,2.013,1.901,1.852,1.877,1.906,1.906,1.88,1.9,1.916,1.932,1.961,1.948,1.94,1.952,1.944,1.982,2.076,2.12,2.142,2.226,2.319,2.39,2.528,2.636,2.676,2.697,2.698,2.661,2.539,2.46,2.457,2.396,2.385,2.349,2.265,2.191,2.115
2.127,2.226,2.325,2.362,2.372,2.392,2.357,2.266,2.219,2.185,2.1,2.075,2.069,1.958,1.912,1.881,1.828,1.859,1.901,1.91,1.866,1.847,1.937,2.058,2.112,2.157,2.23,2.36,2.506,2.545,2.492,2.46,2.384,2.26,2.19,2.185,2.209,2.269,2.292,2.267,2.303,2.336,2.359,2.44,2.447,2.421,2.434,2.428,2.378,2.355,2.361,2.324,2.192,2.078,2.078,2.116,2.098,2.02,1.925,1.865,1.76,1.682,1.677,1.671,1.738,1.929,2.161,2.311,2.34,2.32,2.379,2.407,2.44,2.572,2.638,2.707,2.764,2.723,2.676,2.589,2.491,2.425,2.409,2.382,2.327,2.255,2.195,2.078,1.959,1.929,1.976,2.043,2.054,1.955,1.883,1.898,1.959,2.022,2.009,1.991,1.952,1.927,1.939,1.925,1.967,2.014,2.024,2.085,2.189,2.233,2.257,2.332,2.403,2.468,2.547,2.589,2.605,2.652,2.666,2.659,2.547,2.439,2.376,2.29,2.253,2.227,2.166,2.076,1.961
2.097,2.176,2.311,2.388,2.374,2.358,2.348,2.298,2.247,2.232,2.18,2.177,2.191,2.07,1.959,1.937,1.939,1.929,1.883,1.83,1.848,1.909,1.986,2.062,2.102,2.177,2.26,2.343,2.415,2.399,2.333,2.304,2.252,2.155,2.132,2.128,2.157,2.262,2.296,2.297,2.295,2.334,2.399,2.426,2.448,2.434,2.413,2.371,2.288,2.314,2.35,2.301,2.189,2.114,2.093,2.089,2.047,1.959,1.882,1.871,1.828,1.767,1.694,1.631,1.659,1.844,2.09,2.271,2.328,2.317,2.376,2.401,2.442,2.601,2.688,2.707,2.703,2.681,2.674,2.609,2.496,2.374,2.286,2.259,2.206,2.172,2.131,2.031,1.994,1.945,1.985,2.076,2.135,2.129,2.044,2.017,2.082,2.145,2.119,2.119,2.035,1.942,1.921,1.876,1.878,1.913,1.949,2.063,2.202,2.268,2.329,2.422,2.461,2.509,2.569,2.573,2.55,2.552,2.535,2.546,2.459,2.35,2.273,2.178,2.137,2.161,2.15,2.032,1.882
2.106,2.162,2.274,2.355,2.346,2.321,2.305,2.249,2.204,2.222,2.198,2.201,2.218,2.107,1.991,1.985,1.989,1.909,1.816,1.784,1.867,1.972,2.033,2.069,2.107,2.207,2.262,2.247,2.262,2.264,2.216,2.176,2.117,2.03,2.044,2.048,2.055,2.147,2.225,2.313,2.322,2.353,2.421,2.414,2.465,2.462,2.433,2.404,2.303,2.277,2.294,2.282,2.254,2.197,2.132,2.092,2.056,2.01,1.955,1.898,1.844,1.806,1.73,1.643,1.663,1.843,2.066,2.213,2.266,2.274,2.349,2.39,2.453,2.625,2.719,2.711,2.656,2.612,2.624,2.573,2.455,2.323,2.22,2.174,2.076,2.048,2.037,1.978,2.013,2.022,2.092,2.163,2.178,2.233,2.232,2.224,2.273,2.298,2.237,2.184,2.051,1.915,1.85,1.77,1.777,1.819,1.849,1.964,2.129,2.185,2.253,2.379,2.445,2.482,2.512,2.487,2.442,2.417,2.379,2.394,2.322,2.227,2.173,2.09,2.073,2.132,2.167,2.078,1.928
2.112,2.168,2.258,2.325,2.333,2.295,2.229,2.146,2.136,2.2,2.209,2.208,2.195,2.112,2.037,2.004,1.967,1.878,1.792,1.815,1.918,2.014,2.068,2.098,2.142,2.21,2.225,2.181,2.155,2.169,2.117,2.05,2.0,1.923,1.899,1.897,1.919,2.019,2.147,2.287,2.332,2.384,2.464,2.455,2.473,2.444,2.405,2.391,2.313,2.253,2.236,2.247,2.286,2.252,2.158,2.106,2.074,2.031,1.999,1.927,1.875,1.859,1.805,1.716,1.682,1.816,2.013,2.16,2.236,2.246,2.316,2.372,2.451,2.627,2.737,2.742,2.66,2.541,2.529,2.469,2.34,2.249,2.21,2.11,1.994,1.961,1.944,1.916,1.987,2.067,2.178,2.244,2.25,2.331,2.383,2.374,2.398,2.421,2.342,2.203,2.016,1.863,1.768,1.659,1.695,1.74,1.751,1.874,2.066,2.122,2.153,2.258,2.355,2.398,2.401,2.334,2.288,2.318,2.29,2.261,2.181,2.098,2.049,2.002,2.037,2.123,2.178,2.119,1.995
2.069,2.119,2.202,2.272,2.287,2.217,2.133,2.126,2.167,2.197,2.2,2.201,2.159,2.103,2.065,1.974,1.901,1.862,1.787,1.822,1.913,2.009,2.098,2.141,2.213,2.224,2.208,2.208,2.143,2.113,2.012,1.894,1.86,1.806,1.763,1.772,1.838,1.976,2.145,2.283,2.351,2.406,2.444,2.433,2.436,2.393,2.324,2.298,2.282,2.268,2.22,2.187,2.236,2.262,2.166,2.11,2.085,2.028,2.017,1.989,1.986,1.97,1.882,1.803,1.732,1.808,1.937,2.063,2.208,2.239,2.291,2.345,2.409,2.578,2.66,2.672,2.615,2.47,2.415,2.395,2.282,2.19,2.119,1.94,1.863,1.835,1.818,1.883,1.987,2.081,2.201,2.285,2.337,2.433,2.468,2.404,2.367,2.387,2.332,2.223,2.031,1.863,1.74,1.603,1.608,1.616,1.628,1.812,2.04,2.161,2.158,2.184,2.268,2.322,2.356,2.273,2.196,2.232,2.22,2.155,2.082,2.014,1.959,1.96,2.018,2.11,2.176,2.126,2.033
1.983,2.045,2.149,2.227,2.259,2.202,2.134,2.145,2.18,2.155,2.127,2.141,2.142,2.089,2.033,1.933,1.861,1.822,1.749,1.759,1.852,1.99,2.132,2.185,2.248,2.239,2.211,2.223,2.163,2.15,2.042,1.868,1.754,1.696,1.718,1.762,1.83,1.959,2.129,2.27,2.345,2.36,2.304,2.271,2.304,2.298,2.252,2.248,2.252,2.248,2.198,2.165,2.239,2.313,2.272,2.225,2.183,2.111,2.092,2.043,2.026,1.996,1.895,1.824,1.778,1.832,1.901,1.98,2.146,2.215,2.275,2.339,2.429,2.592,2.61,2.576,2.523,2.402,2.325,2.314,2.221,2.108,1.982,1.803,1.736,1.719,1.748,1.901,2.033,2.1,2.193,2.26,2.3,2.401,2.457,2.391,2.317,2.297,2.254,2.189,2.01,1.831,1.691,1.547,1.552,1.572,1.608,1.806,2.027,2.166,2.176,2.184,2.225,2.254,2.3,2.25,2.175,2.163,2.136,2.111,2.069,2.008,1.962,1.976,1.985,2.057,2.15,2.143,2.068
1.974,2.11,2.184,2.188,2.196,2.228,2.227,2.197,2.173,2.14,2.091,2.053,2.059,2.056,2.023,1.957,1.885,1.827,1.81,1.794,1.884,2.06,2.193,2.236,2.265,2.231,2.179,2.197,2.171,2.154,2.077,1.931,1.771,1.709,1.72,1.783,1.84,1.876,1.994,2.141,2.228,2.222,2.125,2.087,2.117,2.188,2.208,2.192,2.225,2.256,2.217,2.196,2.273,2.342,2.318,2.283,2.242,2.175,2.133,2.086,2.011,1.936,1.915,1.897,1.819,1.815,1.885,1.955,2.086,2.218,2.268,2.272,2.376,2.548,2.631,2.56,2.41,2.259,2.194,2.213,2.133,1.998,1.884,1.796,1.746,1.734,1.768,1.858,1.966,2.031,2.089,2.164,2.267,2.354,2.399,2.368,2.309,2.277,2.246,2.162,1.967,1.767,1.623,1.507,1.505,1.576,1.689,1.856,2.001,2.055,2.106,2.143,2.111,2.123,2.169,2.171,2.174,2.178,2.111,2.088,2.067,2.009,1.969,1.992,1.994,2.037,2.102,2.109,2.051
2.0,2.15,2.154,2.101,2.084,2.156,2.189,2.128,2.069,2.046,2.0,1.945,1.981,2.037,2.025,1.977,1.912,1.853,1.873,1.891,2.0,2.181,2.277,2.297,2.327,2.29,2.217,2.228,2.204,2.1,2.0,1.887,1.745,1.687,1.66,1.71,1.783,1.814,1.878,1.944,2.0,2.037,2.03,2.016,2.013,2.106,2.183,2.205,2.273,2.306,2.267,2.272,2.373,2.424,2.383,2.349,2.283,2.152,2.089,2.082,2.0,1.895,1.903,1.921,1.841,1.816,1.898,1.978,2.081,2.231,2.267,2.242,2.363,2.534,2.615,2.506,2.324,2.196,2.139,2.109,2.0,1.883,1.843,1.81,1.741,1.71,1.752,1.817,1.887,1.95,2.0,2.062,2.164,2.256,2.298,2.29,2.259,2.244,2.226,2.179,2.0,1.792,1.647,1.544,1.502,1.577,1.706,1.812,1.904,1.923,2.0,2.069,2.046,2.072,2.127,2.156,2.196,2.207,2.12,2.041,2.0,1.942,1.904,1.94,2.033,2.11,2.151,2.145,2.082
2.036,2.142,2.089,2.019,2.001,2.059,2.077,2.015,1.945,1.937,1.921,1.908,1.989,2.071,2.064,2.008,1.942,1.906,1.943,1.992,2.115,2.299,2.387,2.375,2.384,2.371,2.312,2.29,2.247,2.108,1.961,1.813,1.68,1.646,1.639,1.666,1.726,1.778,1.814,1.779,1.798,1.879,1.93,1.938,1.949,2.027,2.118,2.204,2.282,2.324,2.332,2.38,2.485,2.531,2.491,2.464,2.361,2.139,2.048,2.071,2.027,1.919,1.872,1.882,1.847,1.849,1.904,1.959,2.086,2.246,2.27,2.252,2.371,2.507,2.515,2.412,2.299,2.225,2.138,2.034,1.893,1.793,1.801,1.784,1.679,1.639,1.714,1.789,1.818,1.874,1.923,1.945,2.016,2.152,2.257,2.26,2.203,2.163,2.163,2.193,2.049,1.832,1.678,1.592,1.551,1.601,1.684,1.725,1.793,1.828,1.902,1.99,2.044,2.089,2.153,2.185,2.208,2.199,2.127,2.007,1.923,1.856,1.832,1.877,2.027,2.152,2.218,2.22,2.15
2.051,2.133,2.116,2.06,2.059,2.083,2.063,2.009,1.937,1.915,1.926,1.948,2.007,2.073,2.111,2.059,1.975,1.976,2.046,2.102,2.224,2.398,2.448,2.383,2.318,2.348,2.34,2.259,2.189,2.114,1.96,1.775,1.686,1.674,1.655,1.627,1.619,1.64,1.69,1.652,1.68,1.774,1.791,1.818,1.931,2.011,2.075,2.18,2.22,2.24,2.326,2.418,2.477,2.532,2.512,2.501,2.424,2.222,2.099,2.068,2.05,2.005,1.955,1.916,1.855,1.87,1.896,1.939,2.116,2.276,2.283,2.283,2.372,2.447,2.441,2.424,2.369,2.222,2.063,1.945,1.804,1.674,1.66,1.663,1.588,1.591,1.686,1.703,1.704,1.794,1.854,1.874,2.018,2.204,2.332,2.303,2.205,2.153,2.151,2.137,1.981,1.776,1.646,1.605,1.598,1.619,1.683,1.735,1.785,1.819,1.876,1.951,2.015,2.048,2.082,2.098,2.101,2.099,2.066,1.998,1.896,1.817,1.823,1.871,1.964,2.098,2.202,2.213,2.169
1.973,2.071,2.136,2.11,2.115,2.119,2.079,2.024,1.962,1.896,1.883,1.908,1.954,2.003,2.062,2.024,1.939,1.95,2.043,2.129,2.258,2.405,2.395,2.301,2.23,2.281,2.288,2.176,2.065,1.989,1.872,1.743,1.698,1.656,1.574,1.517,1.497,1.52,1.587,1.586,1.617,1.692,1.707,1.762,1.936,2.041,2.107,2.202,2.218,2.176,2.242,2.337,2.395,2.466,2.473,2.475,2.438,2.306,2.177,2.086,2.062,2.072,2.074,2.015,1.908,1.915,1.961,2.016,2.165,2.292,2.31,2.34,2.426,2.456,2.429,2.43,2.366,2.161,1.978,1.849,1.693,1.518,1.457,1.474,1.465,1.51,1.616,1.642,1.665,1.779,1.86,1.921,2.114,2.284,2.33,2.263,2.19,2.169,2.135,2.058,1.908,1.76,1.679,1.636,1.596,1.61,1.703,1.795,1.839,1.879,1.956,2.022,2.028,2.025,2.017,2.007,1.986,1.957,1.929,1.944,1.888,1.821,1.833,1.866,1.913,2.033,2.142,2.165,2.166
1.922,1.988,2.087,2.088,2.07,2.047,1.986,1.95,1.934,1.882,1.887,1.936,1.935,1.928,1.969,1.97,1.928,1.904,1.948,2.085,2.208,2.311,2.331,2.245,2.184,2.246,2.263,2.115,1.943,1.846,1.798,1.761,1.717,1.604,1.541,1.526,1.503,1.508,1.568,1.594,1.607,1.627,1.671,1.769,1.916,1.983,2.06,2.145,2.147,2.17,2.225,2.252,2.318,2.421,2.479,2.432,2.342,2.262,2.195,2.15,2.15,2.153,2.127,2.096,2.008,1.984,2.046,2.106,2.154,2.263,2.355,2.397,2.396,2.366,2.318,2.321,2.246,2.052,1.911,1.786,1.634,1.497,1.41,1.378,1.382,1.474,1.603,1.654,1.68,1.75,1.848,1.975,2.179,2.292,2.296,2.229,2.186,2.16,2.066,1.995,1.961,1.897,1.754,1.63,1.581,1.667,1.762,1.807,1.866,1.894,1.987,2.085,2.076,2.054,2.051,2.04,1.985,1.901,1.861,1.862,1.831,1.809,1.804,1.779,1.84,1.961,2.074,2.134,2.151
1.844,1.879,1.96,1.974,2.009,2.009,1.925,1.864,1.861,1.808,1.816,1.892,1.904,1.877,1.869,1.868,1.865,1.849,1.86,2.014,2.133,2.226,2.291,2.219,2.161,2.215,2.244,2.11,1.92,1.821,1.811,1.819,1.778,1.653,1.574,1.563,1.568,1.617,1.665,1.682,1.678,1.635,1.61,1.697,1.821,1.867,1.968,2.099,2.127,2.206,2.262,2.27,2.351,2.437,2.458,2.356,2.222,2.15,2.133,2.132,2.156,2.184,2.201,2.218,2.172,2.139,2.174,2.172,2.144,2.209,2.317,2.376,2.365,2.289,2.18,2.151,2.09,1.976,1.884,1.714,1.545,1.45,1.383,1.341,1.379,1.513,1.641,1.656,1.655,1.74,1.867,1.98,2.105,2.187,2.234,2.198,2.159,2.124,2.029,1.978,2.0,1.996,1.861,1.696,1.631,1.752,1.854,1.878,1.939,1.945,2.028,2.143,2.156,2.136,2.091,2.058,2.026,1.985,1.939,1.892,1.844,1.812,1.741,1.658,1.693,1.803,1.943,2.068,2.088
