0.17230206130119455,0.2093762603586085,0.24258079602098084,0.2696749343984586,0.28990064633638996,0.30365987616674617,0.3121931577108988,0.31725903466097066,0.32081501027353637,0.3246994040580932,0.33031401780940506,0.33830925449796584,0.34826835002689205,0.35841637562837525,0.366261971006886,0.3703659535216157,0.3704782305366205,0.3672666406727703,0.3620472039635274,0.3565137327800919,0.35246604843828744,0.35153680581467067,0.3549168606471388,0.363079181537188,0.3755028441899504,0.3903941176953488,0.4050652281508932,0.4180864621563384,0.42820239330100285,0.43422641422994024,0.4353877184169194,0.43154245119507484,0.4232463752649153,0.4116916723580037,0.39850470326441323,0.3854089732104199,0.3737486285841851,0.36387584651741817,0.3545771582106066,0.346158695914975,0.34042517233562675,0.3375694976467127,0.33673249208796024,0.3366005061428041,0.3358634421391624,0.33353621107105624,0.3291395473023592,0.32274561815599623,0.3148785706133165,0.30628817819044346,0.2975709885607436,0.2891552158025235,0.28233962015323844,0.27789506772271755,0.2757764669680449,0.2753231615745641,0.2754649308154982,0.2749309492302726,0.2724660949465959,0.26704917129807765,0.25811918546838136,0.24580367283890953,0.23115352256907526,0.2163864427982894,0.20472785257799692,0.19859184096634533,0.19889876270024393,0.2053551619389509,0.2167610779811594,0.23131976080760402,0.2469529014166861,0.2616203309299517,0.2736428114242678,0.28202931539505116,0.2868101973753028,0.28937283496376126,0.2924980807461032,0.29856275755010253,0.3086003164021464,0.3225699590885775,0.3396241536149899,0.35837205256905275,0.37713826168692555,0.39421795468309867,0.4081281726610856,0.4178538676507935,0.42309105406562725,0.4244843304405717,0.4237352917888241,0.4212656906785036,0.4170603597737094,0.41282314502356465,0.4109866097118087,0.4138406408864768,0.4229225119279743,0.43867476014953627,0.46036767846677895,0.48628026747474384,0.5141457420104354,0.5418655412693213,0.5684843680444425,0.5950630884376836,0.622511424823904,0.6496567852344959,0.6742076109704791,0.6937306138143381,0.7063646669793261,0.7112699859938822,0.7088132350795389,0.7004888238383118,0.6885752290592121,0.6755278246134282,0.6631067629502302,0.6513137124103631,0.6393913257403527,0.6279270972168634,0.6179744913348235,0.6105358101396454,0.6062267508110651,0.6050789853416404,0.6064799413803321,0.6092511348027266,0.6118630149247645,0.6127888116302946,0.6109950275501317,0.6065701112253645,0.6008155802899576,0.5939810502972956,0.5858406596884123
0.1648499539352583,0.20205890460983733,0.23564443103887048,0.26349418874547925,0.28487507438019155,0.3001365523659058,0.31041467006443235,0.31733527187466154,0.3227175940037185,0.3282777036587242,0.3353313622637742,0.3444981076580283,0.3554036029903816,0.36639261218333635,0.3749228309650398,0.3793612264237633,0.37937822595530385,0.3756598271095838,0.3696101264774415,0.3630541332546124,0.3579407696251159,0.3560450826446849,0.3586709626882213,0.3663529924008403,0.3785601117073296,0.393396968836719,0.4081000425824114,0.42153820619473453,0.43266469502333954,0.4403119717748524,0.4435865406742798,0.44212674252232465,0.4362209619334957,0.4267882891483438,0.415219829050685,0.40308282226053815,0.3916851419956586,0.38150151229792223,0.3716150011771071,0.36232296595830155,0.355127248056052,0.35010625369252796,0.3464532846716295,0.3430300066971964,0.33877929460699585,0.3330026416057171,0.3254958414620809,0.31655055257828824,0.30680964059968113,0.2969966026756478,0.2874918138756694,0.27842523595766866,0.2711831011912218,0.2666361576576708,0.2647371952861694,0.2647476091750267,0.2654697226608605,0.2654813282216785,0.2633764250741551,0.2580082805312315,0.24873895949030336,0.23569103865333654,0.22000461044640826,0.20408988437339373,0.1912001248872215,0.18360966440663873,0.18219473932440675,0.18670393333840016,0.19603996814793256,0.20854663158031325,0.22229880406450175,0.23539930411653812,0.24627703804373013,0.25399029369947146,0.2585364163034495,0.26116286130500793,0.26452551462353624,0.2712748599322018,0.2826407291761283,0.29859134443636165,0.3181454598489966,0.33968151937910185,0.36124116780740567,0.3808297767442304,0.3967127464145901,0.40770669152935735,0.4134678660359456,0.4147747660549329,0.4136634988495069,0.4107083708599661,0.40578266763448084,0.40055663659328,0.39750188482781795,0.3989985619167593,0.406703846611163,0.42118923168142003,0.44184292598366565,0.46703108436587293,0.49452479697219986,0.5221958833294891,0.5489735202545835,0.5757205974142837,0.6031878019398831,0.6301475263405846,0.65433550120531,0.6734067544496369,0.6856275887418248,0.6903025972887609,0.687938108265781,0.680141528258382,0.6692558697126508,0.6577302833239809,0.6472268072168713,0.6375519668280897,0.6280075218334165,0.6194369376466915,0.6129708196611043,0.6095331108702463,0.6095480464921547,0.6127858456911922,0.6183453396490182,0.6247770050741392,0.6303424044285708,0.6334128399211166,0.6330064268192925,0.629462659223925,0.6243708038251081,0.6177003008574476,0.6089782419237081
0.1586755042824718,0.195893352774358,0.22974952114648375,0.25827128253297554,0.28075576895016613,0.2974997000958899,0.30952877119818906,0.3183256307188668,0.32555787460803925,0.3328050458436203,0.3412844952620447,0.3515779685640909,0.3633556386739392,0.375098291420465,0.3842451334103242,0.3889936283948417,0.3889401355646023,0.3847807403036963,0.37799099897066024,0.37050667673938426,0.36440518968504637,0.3615867493658319,0.3634569643063794,0.3706087831652237,0.38250705668412777,0.39717133819729694,0.41178194812943253,0.42550932059603724,0.4375261803709384,0.44670155131855854,0.4520355610802056,0.4529583190222358,0.4494906992651621,0.44226858458765633,0.43242875721590474,0.421359442159818,0.41031178243141864,0.39987457983632785,0.3894404060741374,0.3793078991035184,0.3706684404152103,0.3634828173813035,0.3569984378504674,0.35025711067348797,0.3424617496471989,0.3332084748002427,0.32257577841998597,0.3110804207767212,0.29948717059207824,0.2884918782259553,0.2782522118093632,0.26858510404752706,0.2609425012982604,0.25628311027441025,0.25455550371046926,0.25494902027351785,0.2561499475531929,0.25659885038081864,0.2547540627407343,0.24935635811278353,0.23969984961099855,0.2259045915650281,0.20919321954543277,0.19215152929910886,0.1780533879631069,0.16904285172926167,0.16596007581152197,0.16859853021828516,0.17596259950791893,0.1865306907169019,0.19852219436063753,0.21017155574363375,0.2200046369280074,0.22712049418901029,0.23148062328150973,0.2341996082312225,0.2378146907730429,0.24521755560539982,0.2578120717428891,0.2755733795843289,0.2974000696995689,0.321464451630962,0.3455552621982852,0.36741930378154586,0.3850978706940589,0.39725788337344853,0.40352102983231586,0.4047864762180675,0.40338971089243786,0.4000289344572477,0.3944511979878222,0.38827346130654383,0.38398902324475326,0.38405775954549104,0.39025710190145824,0.4032987797014306,0.42270988454817227,0.4469705845045041,0.47391551893209244,0.501402465489842,0.528239884624969,0.5550692930763594,0.5824960072368914,0.6092567224201427,0.63312530271778,0.6518454099576638,0.663800925108184,0.6684227850856693,0.6663332015432417,0.6592265996011342,0.649487753187259,0.6395467462456375,0.630971104073479,0.6234012859994169,0.6162410588190743,0.6106137719674796,0.6077324150927108,0.6084351837703812,0.6129393330397407,0.6207342711879936,0.6306112456229227,0.6408335136288874,0.649442999284732,0.6547061376667116,0.6556978470724725,0.6530234703764916,0.6485790371131668,0.642059187962948,0.632744470840714
0.15644560798706214,0.19346785014698611,0.2274370287433925,0.2565268204311893,0.28004408921438895,0.29819894672087627,0.31187119111849537,0.322371717837502,0.3311999514327472,0.3397970155635006,0.3492938474704909,0.36025643361347776,0.3724249293007507,0.3844358025791489,0.39373305674185766,0.39838111695148065,0.39793406121539415,0.39311741252531973,0.3854808343398548,0.377055236908358,0.37001445829108415,0.3663404715697524,0.36749315599621524,0.37408363405395945,0.3855534998478632,0.3998561552637342,0.4141555733041118,0.4278929690559866,0.4404614537815326,0.4508070532150383,0.4578785736587004,0.4609482809072702,0.45980242873338245,0.4548018752679607,0.44681211861531955,0.4370050225000907,0.4265288687828819,0.41604881565020135,0.40525929855010595,0.39445186995840004,0.3844812284522538,0.37518114737883806,0.36585860908181145,0.35575176009121057,0.3443469705514025,0.33156045371718235,0.31777836199127857,0.3037621481025802,0.29040860313007205,0.27838301104785834,0.2675997303643577,0.25753766279232043,0.24972810018094876,0.24521637717423858,0.24392776931984925,0.2449541563796688,0.24684311532709938,0.24788484185321408,0.2464002436836752,0.24102824606807838,0.2310143750064549,0.21649826135060923,0.19880107208105913,0.1806822957533843,0.1654303776249554,0.15507368902181476,0.15043771435199393,0.15137938677620164,0.15701345291717322,0.1659485960382998,0.1765301531404396,0.18709465609274067,0.19622974852808653,0.20304382148542174,0.20744518242776416,0.21042848021837787,0.2144185157222578,0.222416686903022,0.2359095648093444,0.25486874130576,0.2781236966087929,0.3037331408209349,0.32935005946443086,0.3525832667541795,0.37135602934373035,0.3842583808302882,0.39089751965398084,0.39224157997694514,0.3907920699262514,0.3873293658160159,0.3815144386284968,0.37487450204663036,0.3698453815561488,0.36887934026789315,0.37380324688238753,0.38543105224369323,0.4034299397517138,0.42643196599127114,0.45239860394305714,0.47924129953681033,0.5056907897263048,0.5321749310882586,0.5592153978847029,0.585586807079167,0.6091504517628403,0.6277544901537442,0.6398780310507343,0.6450200425983004,0.6438318397270065,0.637994924536711,0.6298416903522502,0.6217220613170835,0.6151128632514055,0.6095913968699279,0.6047711897149706,0.6020812948019004,0.6028256395902025,0.6077548450071726,0.6168701027247712,0.6293657100895157,0.643708435475068,0.657858136484573,0.6696235667165492,0.6771580318557748,0.6795934650828199,0.6778120214278508,0.674039955966397,0.6677225586415152,0.6579066772557755
0.15998905780324013,0.19650701087096126,0.230350388630708,0.25984928130264046,0.2842885599226949,0.30374046960349366,0.31888531931644637,0.3308189308742873,0.3408479030678138,0.3502721894615417,0.3601546277951659,0.371079089745345,0.38289441627537896,0.3944237465001257,0.40316921516749477,0.4071412795961662,0.4059091272009188,0.4002536407564522,0.3917896582470188,0.38260114084053126,0.37488903216905217,0.37063077282310003,0.371252766003029,0.37731472844311764,0.3882079027977015,0.4018639139750549,0.4155096436715466,0.42879123813922276,0.44130730915969385,0.45213989196037185,0.460278044874129,0.4649285910438702,0.46571286346325824,0.46275022131996474,0.4566277682870669,0.44825742471215163,0.43861846026978923,0.42838678467573416,0.4175235560444647,0.406300710607231,0.3952199621207206,0.38398278186285867,0.371960408950039,0.35859910579998,0.3436846624470004,0.32747178253204867,0.31067109469899296,0.2943023449191212,0.2794010564039524,0.2665996991160707,0.2555548994003772,0.24538922257174992,0.2377147359771326,0.2336467121638194,0.23305638435604828,0.23490940777346156,0.2375979124025775,0.23926177775741636,0.23810397576192194,0.23269600951430894,0.22227722156121207,0.2070434830505849,0.18842927572561569,0.16934074323785747,0.15305305032271802,0.1414992742717759,0.1355222316996923,0.13506926394660038,0.13937805845918935,0.1471796699704227,0.1569174041571344,0.16698505934658772,0.17597925643377071,0.18296875674453228,0.1877841177668491,0.19131991440087898,0.19589931113416187,0.20443447618205252,0.21835834211419025,0.2376230037177517,0.2610654619834135,0.2867717593341679,0.3124339879937726,0.33570544960856225,0.3545513156869446,0.36759376124640414,0.3744553198487265,0.37609492640366377,0.37497908450198836,0.3719154067825201,0.36655096800837456,0.36027241277590183,0.355336396208881,0.35404945752278677,0.3581714525936674,0.3685502335743247,0.38498467178838447,0.4063081486263862,0.4307003164815912,0.45623071643053464,0.4816253981839449,0.5071243313727241,0.5332609017461172,0.5589569904404075,0.582235719599058,0.6010727430990939,0.6140085011229522,0.6205216769101906,0.6211625051274996,0.6174481695521459,0.6115178537617244,0.6055489542813728,0.6009345621148416,0.5973428098618534,0.5947343988293015,0.5948468926623991,0.599075686264021,0.6080876127818204,0.6216735999906785,0.6387399048833923,0.6574361786840605,0.6754246258216248,0.6902848281357458,0.7000578887756947,0.7039292337522811,0.7030487205812606,0.6999753191496123,0.6939606859475659,0.6838551753121584
0.1696872019992548,0.20537830685658917,0.23884497062793433,0.2685832768171872,0.29382238579611764,0.3144426768712626,0.3308687857948465,0.34393631873861785,0.354733364267703,0.3644163260250299,0.37399954008082714,0.384120411698829,0.3947776167990791,0.40501504883074474,0.41247368722106603,0.41522571458609125,0.41292801877651303,0.40643934839906815,0.3974134793193276,0.3879183860948301,0.3800807778148814,0.3757557500820268,0.376222412132068,0.38190403922507427,0.3921155639772926,0.4048346727284812,0.41745938450937675,0.4297460652977975,0.44146108780583265,0.45188138521007987,0.46014380964814694,0.4655076244496131,0.46752965343266406,0.4661514252264243,0.46169900776096223,0.4547960890385511,0.4461886358454396,0.4364822095292975,0.42583673246726145,0.4144913732218599,0.40260887115033683,0.3897652260588469,0.37539589659677025,0.35915009239926465,0.3411052231114449,0.32184449899065387,0.3023936154718213,0.28402226096185934,0.2679009651748434,0.254629526400433,0.24361416098217073,0.2336284001380221,0.22634131285705472,0.2228991948799417,0.22308575774580153,0.22572286159100918,0.22905177073184813,0.23109109219912996,0.22997499872226285,0.22426927337404967,0.2132679299625259,0.19726619859557487,0.17781456366136708,0.15790424094865563,0.1407426685030773,0.1281868287411151,0.12112876757021,0.11963366944661667,0.12307378806299549,0.13029383717576923,0.13980472998434673,0.15001027486046184,0.15946024675024437,0.1671343096392756,0.1727594249997418,0.1771525766463544,0.18254897043514828,0.1915651340088083,0.20543852601300724,0.22408570292889135,0.24643217387182428,0.270737634351083,0.2949169762144925,0.3168575835487832,0.3347336626408457,0.3473132166748274,0.3542639408902902,0.3564537537166097,0.35610385679540674,0.3540034051943524,0.3498765386471134,0.3449211586520548,0.341085409909997,0.34037558554125874,0.34435045205413795,0.3538057916399313,0.3686493103397139,0.3879562647121834,0.41021474392161233,0.43376314513478736,0.45741152431527193,0.48125691997287223,0.5059468138266785,0.5306633084468092,0.5536675293488943,0.573086049043392,0.5874850345862925,0.5962305297352608,0.5996360633831779,0.5988971738042962,0.5958129149170054,0.5922933250216421,0.5896553075612645,0.5878186762537118,0.5871990333157054,0.5897986524573468,0.5970878185438457,0.6096617319972131,0.6271345294365483,0.6481705849282097,0.6706537009226454,0.691996810556201,0.7095874511116578,0.7213724512453898,0.72658148772035,0.7265880551569339,0.7242414941765639,0.7186814441051563,0.7086247920201408
0.18480413017612646,0.21940081674548031,0.25228070124333757,0.2821121432167251,0.3080397274301965,0.3297066060599962,0.34723489817295505,0.3611626941399134,0.37233869859358876,0.38177426945874526,0.3904522183238366,0.39909409759581504,0.4078833370363436,0.4161154565944081,0.42166713186009136,0.4228081312809388,0.4193586514192681,0.41226888515380644,0.4031895629662251,0.3940852189776673,0.3868901254618722,0.3832062917234145,0.38404418276063784,0.3896055585671019,0.39911015868568644,0.4106630740846569,0.4219535700770641,0.432738485999311,0.4428946029706528,0.4519389032433868,0.45925894025406977,0.46429053015367006,0.46664157314469257,0.466162706387653,0.46296310027495846,0.45737540341406074,0.4498642553228676,0.4408828819500626,0.4306959006749365,0.41949842791986774,0.4071636068944314,0.39316206381165014,0.3769877899304779,0.3584685382754772,0.33793601290924996,0.3162598177218569,0.29473980769592345,0.274863758792884,0.25791888527297363,0.24447706388977086,0.23372628936920037,0.2241289076578694,0.217361084813412,0.2145428600709654,0.2153405387999122,0.21843315263172808,0.22194278544581905,0.2238239455623063,0.2222179689831622,0.21576627022830053,0.20388849181202195,0.18702049437438148,0.16681470321939448,0.14625615068241757,0.12840935361859135,0.11506750027209843,0.10719666586074333,0.10500044091862548,0.10799389440250495,0.11512644831175833,0.12495090973561566,0.13584063320681308,0.14625233733214307,0.1550364426526406,0.16179637398055774,0.16729282849165844,0.17368715486200836,0.18313187015436388,0.19655290348225085,0.21381984621076122,0.23401301888376352,0.25568844610478186,0.27713550263531633,0.2966329639768159,0.3127011873289785,0.3243473146466812,0.33130930885144805,0.3342945298681984,0.33510455398763894,0.3344858230097026,0.3323330312003553,0.32962203210787966,0.3278808272427862,0.3286770759653801,0.33324086345107673,0.3422270730259226,0.3556165432875171,0.37274707629904824,0.3924832609811909,0.41352656250041375,0.4348597746362951,0.45649555890341814,0.4792834979650215,0.5027570919708586,0.5254768078127073,0.5457386340314501,0.562104037199232,0.5737505518103219,0.5806426925218877,0.5835253205134147,0.5837364847848648,0.5828421217375,0.5820909976598211,0.5817870153834257,0.5828485567660883,0.5874496551698569,0.5971014036041986,0.6123483961551895,0.6326882768873634,0.6566291519506213,0.6818840704442315,0.705706917020174,0.7253631223076489,0.7387409641473573,0.7450998316564743,0.7459577030602401,0.7443649672806602,0.7394459837609538,0.7298651530490781
0.20381252934492203,0.23715005559811736,0.26931062703924863,0.2991364085708225,0.325667932134017,0.34828235962038095,0.3667701901339095,0.3813491272459375,0.39261624164141423,0.40143788462867636,0.40877702811313044,0.415459467661598,0.4218766344111962,0.4275980170048941,0.43083340637841094,0.4301838392333895,0.42569888250299837,0.4184224937880789,0.40995148372427676,0.40205604459713146,0.396362696086311,0.39409843991603216,0.3958974375610235,0.4016688107934761,0.4105282695042936,0.42078963759137145,0.43054437958512337,0.43944362689863137,0.4474068754705449,0.45421453326049127,0.4595853325837275,0.46324006469984297,0.46494947178478296,0.46456838171212544,0.4620539207728814,0.45747065110572593,0.45097925643377074,0.4428113845453917,0.43323120263269466,0.4223829692069317,0.4099268988696859,0.3952592806750266,0.37792203095593013,0.35788051343583654,0.335660882732329,0.3123508225317097,0.28945860886333824,0.2686377229849953,0.2512645758031803,0.2378898455513694,0.22753659955611544,0.218418600993007,0.21215117444568055,0.20976244151869852,0.2107809767843765,0.21376295049503377,0.21676490457223346,0.21775546202843224,0.21497270938801818,0.20722163800872145,0.19411667580723196,0.17626513853716175,0.155393321923295,0.13437343344790156,0.11604128163524934,0.10212999446269762,0.09369171234521836,0.09107816388243548,0.09394956367593196,0.10135286545467449,0.1118639947439322,0.12380076092226935,0.1354987027988667,0.14565442254622166,0.15373859272015544,0.16047245291373063,0.16795787413137045,0.17778360667198595,0.19049538333041593,0.20590977931029733,0.22330511807218195,0.24160860355377764,0.2595773550019901,0.2759776145746248,0.28975960533943185,0.3002257953549686,0.30719830109948953,0.3111797466346522,0.31344450264511453,0.31469766487907047,0.315084862270527,0.31534680831850587,0.3165175829873733,0.3196268736062403,0.3254779696928691,0.3345079053531758,0.34672792781884043,0.36173470371526245,0.3788028105980419,0.3970586589930054,0.4157302684942854,0.4348100951563301,0.4554066752696555,0.4774565854043489,0.49985477491037966,0.5210763340039357,0.5396588693363473,0.5545444277816338,0.5652807963122785,0.5720842369075636,0.5757600947193837,0.5774846294178259,0.5784464808205694,0.5794152439206854,0.5817897959513343,0.5877888579730931,0.5989192594579693,0.6157015227184315,0.6375953701690612,0.6630637568332456,0.6897736008645713,0.7149376345099726,0.7357919203052163,0.7502125015922061,0.7574708430973196,0.7591271082332086,0.7583090916361311,0.7542224512586306,0.7455663844699192
0.22471649462013074,0.2567595010019313,0.28816633992786944,0.31794885052646743,0.34503637429701284,0.3685322409828169,0.3878884387164157,0.40299778322533697,0.41420413393651356,0.42223061394674605,0.4280250592724392,0.43252448157635426,0.4363362032325029,0.4393143966948846,0.44008280001599487,0.4376814353662286,0.43243467585330997,0.42547160417847857,0.41828526614139533,0.4123739806901475,0.40896507725874137,0.4088195972837294,0.41211990960770956,0.4184379126991714,0.4267876337287654,0.4357567990843722,0.44392071197368155,0.450741948203581,0.45611696472147845,0.4600878341679892,0.4627486721464157,0.46417844678535897,0.4643980984093298,0.46335276376533385,0.46091898563823436,0.45693762285806894,0.4512709446277707,0.44388436597887776,0.4349449924222904,0.42454425829939935,0.4122192586370398,0.397327510117957,0.3794456994147831,0.35862823017994644,0.33552427243792515,0.3113585735633666,0.2877704002985006,0.26651701694319196,0.24903116407548634,0.2358516495520505,0.22589987784038323,0.2172159126869899,0.21128237938227434,0.20897408431264494,0.20967470798078602,0.2118537066426708,0.2135677413870585,0.21288304640079317,0.20822198041579817,0.19863112641865235,0.1839739055618508,0.16504468637444927,0.14360563390725137,0.12231283931203983,0.10369391826242576,0.0894140072300062,0.08060892848299894,0.07777510607866571,0.08071347783635802,0.08856198825964784,0.09991324628125524,0.11302208803701703,0.1260964507507136,0.13767629793599767,0.14710227749696983,0.1550670818628322,0.16362629220273148,0.173791201064984,0.18571722895487455,0.19917035798090518,0.21363769253115628,0.2284344714153647,0.24280530701839173,0.2560229285629734,0.26748339007898664,0.2767945057037392,0.283862603400714,0.28897396249728896,0.29285151740887083,0.29618515351515423,0.29942297257539113,0.3030794756484483,0.3076710803989294,0.31364550460289914,0.3213269823396864,0.33088336557026665,0.34231395749756305,0.35544797549581497,0.36996454709712684,0.38543381626060225,0.4013744314069647,0.4178158930376433,0.4361410073653272,0.4566931579757148,0.4787035906665074,0.5008254314448334,0.5215670380357856,0.5396256746518397,0.5541198483028076,0.564723385132224,0.5716978703762797,0.5758251335268432,0.5782398978657685,0.5801956036838023,0.5834867103418854,0.5902406303468004,0.6019126599786505,0.6190268965657868,0.6410879488333134,0.6666304045302601,0.6934054992218383,0.7187085612626638,0.7398428370054926,0.7547215234758052,0.7626091472210077,0.7650005415487022,0.7649662478778309,0.7618733559892241,0.7545342985699671
0.2453687258140245,0.27621671031275563,0.306937986980057,0.3367044166275842,0.36434008715623906,0.3886884577566855,0.40887950197115785,0.4244955453978026,0.4356368639219195,0.4428866584909143,0.44717509527417326,0.44954340426782746,0.4508066030278531,0.45110117109575826,0.44951377135840276,0.4455848355241119,0.4399300409114225,0.43374636242133974,0.4283846396662047,0.4250226881100533,0.4244390932488606,0.4268867940767018,0.4320675945465913,0.4392064179744384,0.4472273964324519,0.45502847831170273,0.4617044100071845,0.46648529860783583,0.46919524009144625,0.47011134453169545,0.46970232299235715,0.4684292995590549,0.4666083917009846,0.4643349596566078,0.4614689290073346,0.4576835101995203,0.4525739783332852,0.44582845299529394,0.43744734465033297,0.4274723419558303,0.41540275069666466,0.4005899471347837,0.38263272180259184,0.361627612128387,0.33827898437506204,0.3138716144268574,0.29010164829417456,0.26877182580298165,0.2513406243354774,0.23834363423403432,0.2286617100174858,0.2202339940580588,0.21434897504294653,0.21168433033464532,0.21148747936752407,0.21218552107975014,0.21190109546431116,0.20887023672166277,0.20176767322342234,0.18993415880008696,0.17351041666942515,0.1534746506216423,0.13158436494609538,0.11019930845952036,0.09147922770123566,0.07700475636001945,0.06797630532436384,0.06501854903610951,0.06806192033434608,0.07633175299976934,0.08844141753881607,0.10259461411940606,0.11688901058654888,0.1297262305800503,0.14033178001100047,0.14937525935416146,0.15887632748946232,0.1693439872337507,0.1805951845330513,0.1923550801108096,0.20429760603695718,0.21608183820431454,0.2273822647963949,0.2379180749360403,0.24747687295744117,0.25593283154233865,0.26326365318426664,0.2695607192614176,0.27505851771367407,0.280475845206579,0.28657686138498234,0.29367740566128925,0.30180581996696687,0.3108475879367842,0.3206507316733431,0.3310977887335096,0.3421429476058913,0.3538043086703801,0.3661225172507757,0.37908496707145556,0.39251088790948163,0.4065065984200548,0.4226989608885318,0.4417914656161593,0.4633203569084004,0.486104429656531,0.5086319817743042,0.5293846179512934,0.5470962794147672,0.5609523259715371,0.5707218513180025,0.5768287066890136,0.5803589157056274,0.5830027591178132,0.5868207171905565,0.5937319908574927,0.605101362292904,0.6214814759890016,0.6424922945166937,0.6668396886081722,0.6924699308062296,0.716866342337695,0.7374807578080333,0.7523045744049518,0.7605785646814383,0.76363970513269,0.7643812163898854,0.762380743428525,0.7566198833909265
0.263783817995147,0.2936551015344233,0.3238499604232501,0.35368583703005424,0.38189903916813883,0.40710677407250184,0.42815394521539735,0.4443435370465655,0.45555156933928675,0.4622261504732129,0.4652704022846205,0.46581040181324807,0.4648462994745786,0.46278207206331645,0.4591745367772476,0.4540667791781542,0.44834982563191056,0.4432663980020163,0.44000644032490804,0.439418085396272,0.4418349351611286,0.4470179667057447,0.45421361964532136,0.46232689971709706,0.47021161710679527,0.47707396601934166,0.48250850655168004,0.4855191201117947,0.4858341054926279,0.4839191813372519,0.4805705434050623,0.47659974678294914,0.47261098239582733,0.46886967531176127,0.46526266965767504,0.46135193992278495,0.4565180815034769,0.4501963345759382,0.44219209248857383,0.4325054810289796,0.42066049345282186,0.4060271457576346,0.3882157016286448,0.3673298894896387,0.34407818563044873,0.31974767935126436,0.29603646595644784,0.2747493781458485,0.25734800819976233,0.24437224972042051,0.23470882290086323,0.22625206986799187,0.22005889772462156,0.21659323760588337,0.2149902799290399,0.2136801954977574,0.21090370575553724,0.20511460309246818,0.19527400113394208,0.18103285916264653,0.16280542883374774,0.1417309882641497,0.11952594230136218,0.09821326002520518,0.07955686751282437,0.06502702314783061,0.05585798130240212,0.05277467575267987,0.05581974187326066,0.06430415493642165,0.07687719449701777,0.09171994543731316,0.10685735713111066,0.12059079388391579,0.1320559757449737,0.1418972927066763,0.1521081339026171,0.1628478788371506,0.1736999851967861,0.18436574054335475,0.19465496727271572,0.2044719344040197,0.2137966880523234,0.22266352188849817,0.23113522378407753,0.2392720923402769,0.24709761011512346,0.2545596348399333,0.2615440109612635,0.26885230338273297,0.27753485177057297,0.2877505655807534,0.29911793103503065,0.3110406354842306,0.3229496357058816,0.33446519053378165,0.34547866334525623,0.35614464109588007,0.36679232709568094,0.37775877851770306,0.38913571541496533,0.40112074430771405,0.41551247720265333,0.43328438430414434,0.4542160758136405,0.4772704197624759,0.5009377266659375,0.5235470407210198,0.5435437066876895,0.559736357143557,0.5715088314809014,0.578999787352759,0.5832502826248667,0.5862830083202536,0.5902766188400159,0.5968682066422736,0.6073107485897886,0.6222025699332691,0.6413246413663234,0.6636167985494439,0.6872899181639142,0.7100801942266406,0.7296382057445474,0.7440577807307703,0.7525430676867025,0.756213417325904,0.7577019744945126,0.756807028851967,0.7527017719102793
0.27844984398365874,0.3076447047261975,0.33753536121033617,0.3675677422477105,0.396416139263552,0.4225185682352689,0.4444860742538743,0.46138496909729787,0.47289295846334695,0.47932852992433944,0.4815538449030999,0.4807514392087086,0.4780739641656297,0.47416865653816115,0.4690265523049981,0.46313590595007104,0.45761747833209354,0.4537370104446075,0.4525281982687919,0.4545425144860968,0.4597255526511126,0.4674187087731155,0.4764881003610236,0.4855788890810276,0.4934973903708139,0.49971744133729956,0.5042611408749573,0.5059616700037896,0.5044592364772376,0.5003500602588788,0.49467198170015575,0.4885044834671404,0.48268031916682536,0.4776111717392611,0.473225540866801,0.469020448296399,0.4642251338446224,0.4580786620013151,0.4502094032451081,0.44058684415340577,0.428789589659677,0.41421656704730436,0.3964844154465049,0.37568677213669693,0.3525110530884562,0.32821937131624407,0.3044853638849777,0.2830959942079446,0.26550590314566974,0.2522642230682799,0.24228692971545257,0.23345313167419052,0.22658230864992307,0.2219397003395206,0.218583343021185,0.2149855397227959,0.2095355736589652,0.20091872611856287,0.18837710697533266,0.1718477032641484,0.15198175047077664,0.13004157346247172,0.10767667132654539,0.08657758962895837,0.06812129207959204,0.05363845255305125,0.04435707576411992,0.04106633984842462,0.04390127447992125,0.05225860234886488,0.06484546530420604,0.07986164423719357,0.09531077083433191,0.1094441326971747,0.1213404349920436,0.13161283266515844,0.14223379438680137,0.15321956661803762,0.16406188802679514,0.17445953042298792,0.18428632222756855,0.19355664294886377,0.20238458855671843,0.210940356288731,0.21940388861097923,0.227910731588602,0.23649777408918526,0.24504124111840267,0.25327066286355593,0.26212402418617414,0.27286949576651914,0.2855572072717412,0.29950848827937665,0.31377366561208114,0.3274715375772568,0.34001845138521275,0.35124472081045877,0.3613883843960355,0.37097769666758207,0.3806019720979279,0.39056479822213136,0.40114129071843785,0.4141984006703022,0.4308595238555514,0.4510662617277072,0.4738975511670838,0.49787641408429145,0.5212661408656888,0.5423536765860558,0.5597236724575745,0.572519263377246,0.5806916040354779,0.585238971274615,0.5883739953874351,0.5922527552117773,0.5982149018843511,0.6074018188091913,0.6204653770304435,0.6373600281976067,0.6572747468557736,0.678700505560209,0.699639797288655,0.7179509227115992,0.7318324445667306,0.7404452933856644,0.74467337198411,0.7468587659521843,0.7469900882022622,0.7444189632612831
0.2886321512565386,0.31747447902087994,0.34730236418448457,0.3776729185529289,0.4072271230099409,0.43427504106633985,0.4572492252146135,0.4750252568251688,0.48711013458743124,0.49369833274500047,0.4955951964497709,0.4940084852339927,0.4902072767726981,0.48505362656231504,0.478904533040694,0.4725919818484527,0.46740243583045105,0.46460507858811767,0.4651028134845362,0.46921567064517383,0.4765965425094546,0.4862785064484018,0.4968545156555242,0.5067890478461589,0.5148631020492256,0.5207491406059043,0.524788921793747,0.525736142112972,0.5231778475067707,0.5177815199219746,0.510721075407148,0.5032285438801422,0.4962692061107879,0.49034151199868015,0.48540118431007623,0.4809100507466884,0.47600926008558325,0.4698156774774264,0.4618379831931883,0.4520265639569017,0.4400087839464309,0.42520962171830096,0.4072515324239376,0.3862191545643552,0.3627824287373547,0.3381819342795562,0.31407127575368615,0.2922233804979441,0.27408940373236956,0.26022923928693525,0.24958786687276413,0.24003044589451797,0.23216243177347004,0.22609151193247615,0.22083886026375144,0.21494601593609672,0.20695630562625406,0.19576821397767655,0.18086425082099578,0.16241175338110436,0.1412392646907333,0.11868520449223255,0.09631990513231928,0.07554667951200768,0.0573940994230454,0.043025104291157766,0.0336191845415254,0.029993933065639675,0.03235545614951723,0.040188315947722146,0.05228222393528745,0.06689990776459023,0.08207950464579934,0.09607653923632894,0.10794609511607811,0.11826049260541066,0.1289760333583408,0.14018565454700974,0.1514408638085783,0.16245918192514341,0.17310155401968166,0.18334631814410599,0.19325646078194336,0.20294593225424348,0.2125406260832629,0.2221340752771233,0.2317411492537353,0.24124532897693374,0.2504270886103437,0.2604054346067363,0.27257456357662596,0.28692085735766076,0.3025945578460079,0.31844137516825743,0.33339694599633973,0.3467542323222747,0.35830025029910967,0.3683131512652776,0.37742993001972613,0.38638472083230607,0.3956132204881777,0.40543153156063744,0.41765965160278556,0.4334429826013246,0.4527987210446885,0.47489178956556144,0.4983116921291656,0.5213494122541481,0.542273304932701,0.5596080008325814,0.572411006600009,0.5805503247041277,0.5849825234686552,0.5879578105755325,0.5914994861245689,0.5966898265905445,0.6045795423820781,0.615872143661616,0.630677290731149,0.6484033317029495,0.6677861674426216,0.687059581214695,0.7042602007781883,0.7176734749975305,0.7264164543945817,0.7311593087984848,0.7339733494482691,0.7349770020552369,0.7336590658298128
0.29467710588958707,0.3234349242507098,0.3534005381425065,0.3842284946905718,0.4145505000123139,0.4425912761138359,0.4666508417043875,0.4854519760172046,0.49835373166778196,0.5054308066268612,0.5074184889758427,0.5055236246318064,0.5011013697077518,0.49520389110024954,0.48847961724555883,0.48199639214693474,0.47714393040423897,0.4751822927080004,0.4769170757853052,0.4825093407220526,0.49141941900960406,0.5024841858510405,0.5141286216565988,0.5247110129291112,0.5330035800473861,0.5388045464668648,0.5426675894621243,0.5433625857904506,0.5404694181224705,0.5346806067569919,0.5272104654220492,0.5193327193133216,0.5120451686043694,0.5058629201206396,0.5007381745757052,0.4961093631784486,0.4910767868392808,0.4847060820553534,0.4764548394725183,0.46626346225193693,0.45377991725559536,0.4384431057407605,0.41988354319559285,0.39819049909075427,0.37403647198101164,0.3486646471578491,0.3237321702703268,0.3010174693813131,0.2819794770254915,0.26718900076187563,0.2556043604071493,0.24505923536501045,0.23598356763810882,0.2283770328268551,0.22125901731552322,0.21325296785901832,0.2030447218597921,0.18971017743465865,0.17291718912654946,0.152998723322106,0.1308985444918671,0.10798923364105835,0.08576126785422515,0.06539138347023879,0.04761121410981972,0.03339316409296418,0.023834816258748528,0.019752359973910328,0.021406956769054238,0.02837265012219934,0.03954261511617345,0.05327997114564959,0.06770354485334093,0.08111703092547627,0.09257972351621614,0.10261447531875238,0.11316281125478556,0.12457600973675437,0.13658969171976007,0.14895833305748335,0.16146557908504486,0.1739324009515368,0.18621832701438243,0.19822133691293936,0.20987298895426018,0.22112723163746056,0.23194864582370617,0.2422936560416312,0.2521647184595548,0.2628908452317365,0.2759045452222296,0.29116183249488176,0.3077486516231764,0.32443558774717596,0.34009147604990936,0.35396330046757235,0.36581996663583327,0.3759515566810824,0.3850328815395978,0.3938530514879084,0.4029046573718019,0.41250128104735784,0.4243169005300822,0.4394131863004332,0.4578105953937377,0.47873581877264676,0.500872264152892,0.5226157093612718,0.5423318292667748,0.5586206476498773,0.5705825051433886,0.5780882112659608,0.5820539763842395,0.584642499735846,0.5876802569350674,0.592060525283704,0.5987738754787542,0.6085687569563851,0.6216755331474149,0.6376695186466208,0.6554707938415453,0.6734847427590701,0.6898782296627277,0.7029958103462018,0.7119131710735137,0.7171294635066351,0.7204947186422778,0.7221917654408246,0.7217968188714231
0.29829875586799137,0.32708911349404307,0.357277176775242,0.38860842705391946,0.41971685476987886,0.44876234936273357,0.47393438707147145,0.49382115440175817,0.5076446550731991,0.5153619888952062,0.5176317797197029,0.5156474737746103,0.510835740731374,0.504426531702314,0.49731914855303216,0.4907595505225217,0.4862089657690905,0.4849137110333199,0.4876020832544402,0.4943160160446713,0.5043765609247586,0.5164831535983064,0.5289468241545021,0.5400570069384438,0.5485842804697941,0.5544138734979306,0.5582552015819048,0.5589442395504272,0.5560803208086845,0.5503613281793079,0.5429962790705065,0.5352458300087892,0.5280898531251067,0.5220224818183961,0.5169741356869473,0.5123616501955534,0.5072651340352899,0.500732044085507,0.4922041482365771,0.48161297831395367,0.4686069116444093,0.4526309667346096,0.43332625833276617,0.4107959753000829,0.38572945352307225,0.3593876466186838,0.33344550166344167,0.30969791910242206,0.2896180016084923,0.27378619604274873,0.2611652314081299,0.24954836956766407,0.23921444189897428,0.23008174604834958,0.2211832799420159,0.21122753599047933,0.1990320313478578,0.18382727694747666,0.16543608440956759,0.1443219346820765,0.12151290964716711,0.09839606250398879,0.07638397471325062,0.056462079541720035,0.03909070662704666,0.025040682356661063,0.015311819505657397,0.010706642935622967,0.011535622914739578,0.017464773514799373,0.027502835517226678,0.04013095680400995,0.05357113632806676,0.06619533833817902,0.07707842816879477,0.08668854752930652,0.09695051145236477,0.10855180873294287,0.12146609017990805,0.13549086424552467,0.1503034394036132,0.16551462883258253,0.1807140736723384,0.19551527498360127,0.2095955942033898,0.22272916977273757,0.23481956894841835,0.24592502476691558,0.2563446998535832,0.2676271388194556,0.28120440696180055,0.2970170199885758,0.31413375577662983,0.33130908375785545,0.34739694818107164,0.361632929550737,0.37377980901205893,0.3841269046559153,0.3933555152034833,0.402269142025318,0.4113830955241596,0.4209867997172824,0.4325588811736221,0.4470272617470388,0.46438350042781024,0.4839058610928903,0.5043861340228436,0.5243608467438358,0.5423461558119034,0.5570787300590249,0.5677586795427263,0.5742978470195093,0.5775723497149389,0.5796023893817261,0.5819990535476471,0.5855093219201172,0.5910815005639256,0.5995036818691348,0.6111053234105016,0.6255969813095521,0.6420468740193532,0.6589977721030653,0.674719738616024,0.6876014741776603,0.6966805580308495,0.7023102811895641,0.7061488419464294,0.708414739975854,0.7087493879440402
0.302182212865979,0.3309967448818351,0.36133648046174377,0.39302518373595513,0.42472192996835184,0.45456209762865224,0.4806684458770401,0.5015313779143993,0.5162588544536886,0.5246958919360089,0.5274133806753708,0.5255669776577396,0.5206250743139875,0.5139692686338434,0.5066985734627365,0.5001714418727575,0.49588592468580245,0.495070278191847,0.4983983531623134,0.5058374580630776,0.516628431651125,0.5293975674532673,0.5424004828125153,0.5538982767628999,0.5626670492375021,0.5686367961290257,0.5725994364186073,0.5734557718896236,0.57081125319666,0.5653327532097684,0.5581841514514432,0.5505838398159847,0.5434833021600776,0.5373675489717592,0.5321765332250059,0.5273491230750856,0.5219877114787405,0.5151441247791766,0.5062251221927188,0.49512738576036747,0.48152072966338977,0.4648937280186176,0.4449318721140022,0.4217718732050441,0.39611612591682605,0.3692168962466835,0.3427202050893926,0.3183800768866749,0.29762904284643293,0.2810259143632751,0.2675537583082707,0.2550309808228204,0.24360515723846707,0.23311346544296963,0.22260277310009755,0.21086566493838924,0.1968500270244719,0.17993984439941985,0.1601104494536449,0.13795448713484193,0.11458238385766459,0.09139504269760636,0.06972790421711522,0.05037533694524691,0.0334949593600139,0.019610180268189746,0.009606544344629413,0.0042797177167459306,0.00401463690947027,0.00860638730874658,0.0172197922412622,0.028494942146974463,0.0407888126895586,0.05255900960937788,0.06289242088688464,0.0721693487671624,0.08224575612512768,0.09412002572952172,0.1079779259982305,0.12363270869420029,0.14063678182896225,0.15838498789923328,0.17620905051020774,0.19346540059906672,0.20961484632595617,0.22429333190685785,0.23737612900987684,0.24903230940464863,0.259828208570134,0.2715335719148871,0.28563179269568645,0.3020800137545426,0.31993805887759863,0.33792837131280146,0.3548555927780177,0.36989564776904443,0.3827498366747374,0.39365512139562264,0.40326149029965785,0.4123773041308382,0.42157426089194794,0.43116802786499786,0.4423893208184827,0.45600288861283295,0.47198796305393215,0.4897175525600159,0.5081451705375262,0.5259995545795026,0.541986906438127,0.5550023475937628,0.5643480217053779,0.5699592077447025,0.5726389072421083,0.574225539013089,0.5761113334094238,0.5788997266304522,0.5834690471152667,0.590608380313897,0.6007121961269603,0.6136074108225529,0.6285128437079853,0.6441320880979248,0.6588774397166257,0.6712273188413664,0.6802157032175408,0.6860543397117795,0.6901831387950925,0.6928775620616137,0.6938674972002329
0.30817865982982395,0.33698384053098784,0.36729161944114824,0.3989707760988738,0.4307557888113655,0.46085094116927383,0.4874161824285586,0.508933792559571,0.5244563923534912,0.5337363656176687,0.5372363194072782,0.5360208669704812,0.5315299717414855,0.5252291916200569,0.5182978713825804,0.5120635997973628,0.5079843477860192,0.5072606718858368,0.5105613119196061,0.5178757546924732,0.528492982508639,0.541106009283919,0.5540431046285333,0.5656247922849569,0.574648609040765,0.5809977842846009,0.5853866591529543,0.5867771814415894,0.5847486909483511,0.5798539380918472,0.5731207399382502,0.5656575765046779,0.5583624785399741,0.5517359350268669,0.5457969332719314,0.5401037999241037,0.5338775787450212,0.5262289249503537,0.5164933754955701,0.5044761317374815,0.4899156084398975,0.4724289743650176,0.4518286007626171,0.42833298730710473,0.4026581335451155,0.3759928315635239,0.34985383646871054,0.3258260272808138,0.30517796362858285,0.2883712214399264,0.27443696148013075,0.2613559518850529,0.2491829301200914,0.23767186226814366,0.22588135396179287,0.21268652645366104,0.19716450925492168,0.1788518346584284,0.15787591887838776,0.13495837225025006,0.11129294554032658,0.08829492133243755,0.06722377772193103,0.04868160034659117,0.03245989957647979,0.018751170155661488,0.00829623481975432,0.0018997369582758573,6.95671609104056e-05,0.002798999101479342,0.009488568820512223,0.019011722609486185,0.02991957273528702,0.040786588235231805,0.050701510801711876,0.05989549831351936,0.07005087380008564,0.08240551961266954,0.09728608627652033,0.11445799978655831,0.13330998539010175,0.153021298885363,0.1727058792063041,0.19153936741285635,0.20886695300337085,0.22428886975740472,0.23772924789345498,0.24948246348783315,0.2602975419514873,0.2721482760346559,0.2866753927949395,0.30391791286865366,0.3229414164795521,0.34240514522906185,0.36099370264262526,0.37772419023904147,0.392124422072201,0.40427317014136144,0.41471363990374466,0.4242395014362295,0.4335484190882544,0.44308635622994186,0.4537423795888308,0.46607411219776884,0.4800955429614955,0.49537011609797876,0.5111233441387085,0.5263747061535556,0.5400891423589862,0.551348959418803,0.5595444449946733,0.5645844229407975,0.5671262989555392,0.5687573006458597,0.5706587191856802,0.573296789609256,0.5774146120697303,0.5837091822561634,0.5925566845249745,0.603852940265192,0.6169670253775813,0.6308128235554884,0.6440325967299991,0.6552971010328618,0.6637200503044457,0.6693880128923018,0.6734705751035365,0.6763447554649414,0.6778747033729877
0.31690278432829555,0.3456543968921725,0.37568617630071655,0.4068624548389429,0.4380533032219897,0.46765048234908735,0.4939865584699144,0.515656265665521,0.5317407123073496,0.5419341418518635,0.5465730824607867,0.5465688983681244,0.5432422269224119,0.5380458883742337,0.5320841521664463,0.5264791098581195,0.522555357796858,0.5214733593788689,0.5239562343907525,0.5301321934946892,0.5394932798969971,0.5509685115249243,0.563113423072411,0.574414286610877,0.5837100826305338,0.5907270443595916,0.5959128829537153,0.5983002520783421,0.59741219165157,0.5935874542894497,0.5876022156624359,0.5803636029486731,0.5726739423977552,0.5650669044361181,0.5577139176957195,0.5504034868851204,0.5425904618046627,0.5335166345489005,0.5224170576454098,0.5089383606354206,0.49293037961107533,0.47423827666226986,0.452902436227675,0.4292911180451707,0.4041444430879981,0.37853552354253883,0.3537415719000574,0.3310333672783298,0.31137084447436275,0.2950246834985476,0.2810971631057302,0.26788038897232064,0.25537846574618395,0.243258446901878,0.2305877034812975,0.21632099352604345,0.19966315405908627,0.1803017286923095,0.15851624394531338,0.13515715637410766,0.11150215017344123,0.08898275438819958,0.06878444428496637,0.05131667834946548,0.035951948608749465,0.022479064309769037,0.011469207064125457,0.003751039071745802,0.0,0.0004703396821201804,0.004867317919806833,0.012364470485860547,0.02175895018466943,0.03176867687602931,0.0414750303677738,0.05090263854709236,0.06146008415322571,0.07452920351029485,0.09048113623008484,0.10895395829730732,0.12913198349560817,0.14998758013000876,0.17047806171642604,0.18970424555645388,0.20702803103749345,0.2221465481103128,0.2351285032838507,0.24640601667228518,0.2567941720355902,0.2684180117774264,0.2831755647929258,0.30125559854107575,0.32175294548206707,0.34324144157748765,0.3642228125669488,0.383461412139218,0.40020085299878955,0.41425393920407433,0.4259749995167108,0.43611725337090895,0.4455674304930847,0.4550047243172845,0.46488867003318407,0.4755385629018748,0.4870643346617386,0.49932629487737296,0.5119358658039668,0.5242979926683045,0.535693090977269,0.5454018940169328,0.5528697844159497,0.5579127812643745,0.560964481025537,0.563304143549334,0.5659423198993063,0.5692299177455049,0.5736987273208275,0.5798379961691719,0.5878965056735502,0.5977681573070545,0.6089596253595209,0.6206418504070355,0.631783453608343,0.6413675680385106,0.6486909483510835,0.6537465769222927,0.6573873201336685,0.6601471529500369,0.6620759931857549
0.32800141451461745,0.3566539025479552,0.3861560257422329,0.41631075176758053,0.4461786986253667,0.47445603485190296,0.4997860684014409,0.5210031918271429,0.5373102957544436,0.5483889521946228,0.5544426457553836,0.5561733639072223,0.5546909239880123,0.5513269134875286,0.5469522592379072,0.542319912547167,0.5385337588749769,0.5367022252752564,0.5376570590542309,0.5417731866923609,0.5488891366389608,0.558326874029946,0.5690127553918521,0.5796983851785668,0.5892832675751091,0.5972354004957885,0.6035664623258206,0.6074076447609996,0.6082092957298156,0.6060047820471706,0.6012052040579343,0.5944196385420608,0.5863009363628636,0.577416717356861,0.5681455889467923,0.5586001376513523,0.5485735554221471,0.5375128799877761,0.5245431990354342,0.5090903120512197,0.4911383565572544,0.47084561307152917,0.44857747469881815,0.4249234085949208,0.4006722254632757,0.37674738335319014,0.35409966146254696,0.3335625718478886,0.3156592944984213,0.30038116951745497,0.28691039050560524,0.2739694156067186,0.26154454059324606,0.24921121246796057,0.23604125780181012,0.22106627099626688,0.203615824026596,0.18352742580054537,0.1612315082303486,0.13770819502214787,0.11432024250789218,0.09251725342387215,0.0734138250366042,0.057228721836488305,0.04289394093067462,0.029764258156398736,0.018233216558308375,0.009163507191210651,0.0034208929754115706,0.0015514774481377742,0.0035992995087398547,0.009069762330295982,0.017029707322718274,0.026351786329510008,0.036102999650178075,0.04607157393649236,0.057330146361150226,0.07130411547883896,0.08830686453364447,0.10777248175219208,0.12864911801710022,0.14972247284113396,0.16986550260618657,0.1882181114541655,0.2042965732545912,0.2180281695362569,0.22971837878590873,0.2399429506909976,0.24945622022309688,0.2604468981705717,0.27512664824783173,0.2938859217728265,0.315876244999281,0.33958548054966264,0.36330269326800674,0.3854843365313395,0.40501803463104646,0.4213740070393387,0.4346548467814397,0.44554528525581355,0.4551540077119713,0.46445916497691997,0.4734398432077479,0.48217493108825865,0.49093133665606786,0.4999524522887649,0.5093180140813255,0.518875090798783,0.5282400964777619,0.5368736671480139,0.5442252106412598,0.5499496319984577,0.5541957975291079,0.557917508229819,0.5620302991864587,0.5668069176292507,0.5725035068257646,0.5792897476224158,0.5871748820973003,0.595971195434996,0.6052938835185677,0.6145997293050937,0.6232612513032257,0.6306794887038767,0.6364331457465123,0.6404654458826012,0.6432906088040194,0.645652529111884,0.6478336860240977
0.3404313226870243,0.3689461036894958,0.39770164215044357,0.42638500087521686,0.4542866029325193,0.48050094976255275,0.504097564037141,0.5242615010247055,0.5404041807030177,0.5522439712653464,0.5598566630483975,0.5636964287180232,0.5645861972079391,0.5636348060368512,0.5613470077249473,0.5579854732539821,0.5543685370002227,0.5515426193532293,0.550486996607972,0.5519011934462279,0.556074349208081,0.5628357502647497,0.5715878525727006,0.5814206159778846,0.5913092952796285,0.6003919011855018,0.608128129628487,0.6137908753413147,0.6167602040883882,0.6166997995607763,0.6135655434143308,0.6075841446191906,0.599201871083868,0.5890028539219381,0.5775966465821392,0.5654771441290163,0.5528496451598125,0.5394284264607316,0.5242425534405291,0.5064515795876656,0.48616978624317997,0.4639220916649961,0.44047180808679187,0.4166933843933873,0.3934571780625374,0.371531114091468,0.3514934889526713,0.3336649463999193,0.3180458095914763,0.30428152839608635,0.29162671696758147,0.2792976921021544,0.26727937583930117,0.2550498688233987,0.24168059378100828,0.2262759297888066,0.20828744292884369,0.18770044915440282,0.16509588854636412,0.1415838962217908,0.1186137306561849,0.09765590180834896,0.0797573861814249,0.06495152410871544,0.05174756044888429,0.039089223657495474,0.027204864563833496,0.01699379827430011,0.00950779446147947,0.005575568288496897,0.005568153440740934,0.009309023578421416,0.016123718853336164,0.025031096017776568,0.035081101221410796,0.0458293997124628,0.058004579727753275,0.07298831870180846,0.09094414050924644,0.11104375369252797,0.13198283356818097,0.1523897789501476,0.17112412004956296,0.1874675832124669,0.20120844805382757,0.21261423168804042,0.22229859221170872,0.23097846595803673,0.2392337205031398,0.2492062074457253,0.263420788373095,0.2824914126794426,0.30565485088608757,0.331336747098345,0.3576260552668988,0.3826703604304531,0.40498538612952095,0.42367228544409774,0.4385510116368091,0.4502117667278303,0.4599781871067979,0.46913879456290397,0.4771924976570405,0.4840076166375413,0.49005847666719543,0.496019749446998,0.5024700181955067,0.5097030168102543,0.5176474700671865,0.5258951773565379,0.5338378695871281,0.540911581383118,0.5469498494123866,0.5526099734469005,0.5588136190627262,0.5658041256742546,0.5735206385666888,0.5817273788221885,0.590099324533851,0.5982912748162376,0.605986324372578,0.6129294289216667,0.6189396926598568,0.6239063430579944,0.6277660626125634,0.63046183644064,0.6321784001777445,0.6339120975094851,0.6362086612307005
0.3527355040884941,0.3810877373115404,0.40895450779048925,0.43586481090681733,0.46135638883143854,0.4849768828880408,0.5062954043568056,0.524923342390923,0.5405457513319583,0.5529621787153087,0.5621374304957328,0.5682628891901318,0.5718269549312313,0.5736378726060304,0.5737493998607598,0.5718752573680416,0.568516437260987,0.5646509711994072,0.5614221095400755,0.5598885998569464,0.5608373958313196,0.5646576180807885,0.5712765613749458,0.5801574172178591,0.5903605125460548,0.6006640260981456,0.6099333802410726,0.617634176304424,0.6230972507598233,0.6255899636857831,0.6245618155996215,0.6197998149995485,0.6114940468041079,0.6002123294618118,0.5867843579549532,0.5720970407607422,0.556797548439479,0.540907238400861,0.5233938049476631,0.5031290922346153,0.48032691269308064,0.4558915798312963,0.4310212668426281,0.4069182714295059,0.3845716068398793,0.3646148900205947,0.34725650136499403,0.33228795951863865,0.31915760642888485,0.3071318091142779,0.29551480493521676,0.284015647182477,0.272614425003714,0.26068533186872433,0.24729395793186126,0.23161295183235453,0.21321260990194657,0.19222407563992122,0.16937810877422768,0.14591518685283936,0.12337318902274161,0.10324616738436214,0.08651752936213507,0.07304257949842262,0.06096254786880063,0.04888275457357078,0.03689699743684602,0.02593732282155083,0.01721176831672628,0.011784496983348635,0.010298164269066818,0.012840768527784626,0.018951159192279448,0.027768340030088393,0.03832586508101913,0.04998407131812425,0.06317132508890534,0.07916496632732263,0.0979138855470582,0.11829584554024714,0.13875582032446845,0.15779762603056452,0.17432479204662243,0.18783535966116263,0.19846764226643296,0.20689644397142423,0.21408389423567087,0.22087803978966195,0.22760302864752913,0.23624059803924943,0.24957187198689054,0.2684252677355876,0.29214657724007187,0.31914303823916434,0.34735682276554225,0.3746781790563918,0.3992942455220278,0.41996371623695417,0.4362296677592092,0.44856866956710795,0.45847284060434185,0.4674967765273461,0.474709437273963,0.4798265561183484,0.4835603027058633,0.48701915705362553,0.491255378743803,0.49696132918560876,0.5043136803676281,0.5129661853812569,0.5221904546016678,0.5311654392886831,0.5394146427883852,0.5473677290466333,0.5560612805389111,0.5657592790861307,0.5760734514818706,0.5863159249479702,0.5957666780449271,0.6038634004968477,0.6103123054430014,0.6151224495902899,0.6185604496787385,0.6210274754535438,0.6228589163676673,0.6240445240422466,0.6244791665287417,0.6254347285516922,0.6277313717177051
0.36331114627720357,0.39149425269854116,0.4184309347978011,0.4434708822900863,0.46639240777849306,0.487203177685969,0.505990243649249,0.5228183597986021,0.537677502848758,0.5504792242586277,0.5611014703378284,0.5694831083147719,0.5757664370623751,0.5804187641196576,0.5830205282708284,0.5827490124349645,0.5797938513434248,0.5750627150471359,0.5698537050537749,0.5655706506555388,0.5634810009091133,0.5645158223582553,0.5691123129637755,0.5770984085353372,0.5876215737113988,0.5991175801538422,0.6098956439623145,0.6196634082824379,0.627737118224716,0.6330033549537936,0.634401980611762,0.6312606538783494,0.6234800952384231,0.6115711347391708,0.5965417414882183,0.579636577126201,0.5619269415050605,0.5437517196488434,0.5240643455191942,0.5014557861896871,0.476188593474881,0.44951669095470664,0.42306710807961534,0.3983854466929382,0.376611084217576,0.3582874102406198,0.34330190072339783,0.3309613969122985,0.3201932157056009,0.3098904601892852,0.2993748356485754,0.28878404970913935,0.2780705546597419,0.2664977780614251,0.25311968464652496,0.23717219421498875,0.21834106287075894,0.1969012556779859,0.17373222654372497,0.15020581498842622,0.1279501362081051,0.10848610788550522,0.09273779218141379,0.08039119677496494,0.06930099435756568,0.0578410823347343,0.046014797387960986,0.03477849598817014,0.025447783980062533,0.01924875940328483,0.0170100844577641,0.019000044224270544,0.024902951559594058,0.033938764479807385,0.045128219930740024,0.057695910208312204,0.07185604496787384,0.08875729005322007,0.10810649416199906,0.12848747433602026,0.14811350384128835,0.16539380653655905,0.17930972798895822,0.189606952161256,0.19679927503974226,0.2019833923299226,0.2064706066166394,0.21122543070334862,0.21628373391606975,0.22337305661474596,0.23543038027311533,0.2534611119040879,0.2769355400802975,0.3042985759255253,0.3334274875556345,0.36204937917863084,0.3881141645571866,0.41011209793319064,0.4273491826586837,0.44017868988643893,0.4501845304031267,0.4590966279126118,0.4656447858922988,0.46946582907134066,0.4715166170710451,0.4732966572012604,0.4762577104486062,0.4814003443137519,0.489058306390513,0.4988696726636013,0.509935220712212,0.5211644780066347,0.5318082271443276,0.5421636711123092,0.5534759349792,0.56607194732704,0.5792562483995184,0.5918892687821404,0.6028386685369738,0.611293634061904,0.6169419208216075,0.6200123827957524,0.6211791090901532,0.6213297364259958,0.6211975932463448,0.6208565367311697,0.6199730311394476,0.6200946611242445,0.6223041268659266
0.37067125491266767,0.3986986048434315,0.4247754095577917,0.44807679372449655,0.4685924394504856,0.4867472572345743,0.5031055765745892,0.5181575851111976,0.5321891384661911,0.5452342522536503,0.5571103623291838,0.5675371344844178,0.576337565710778,0.5836431106663379,0.5886054180822184,0.5899470023756642,0.5875886041204839,0.5823697694538461,0.5757102563498241,0.5692977768432715,0.5648010424216681,0.5636079139729363,0.5665890402724215,0.5738866539890425,0.5847304451265516,0.5972764204928385,0.609390163198151,0.6210587767037136,0.6316256497591366,0.6396517457861818,0.6436134989421926,0.6424015155948813,0.6356183863861277,0.6236773301887317,0.6076993660569985,0.5892126941134318,0.5696496510916906,0.5496452789796745,0.5281906553321891,0.5036280188029947,0.47620781911584825,0.44746667092137693,0.4194119191559149,0.39391564736784823,0.37228868312833485,0.35504193137783496,0.34182619788851615,0.3315612481651562,0.32273902092761336,0.3139234223653523,0.30441836543918277,0.29467574208723196,0.284581823771843,0.27328243658252843,0.2598136966538116,0.24347041886210158,0.22405016462286098,0.2019694762495806,0.17825603840043727,0.15441348951474324,0.13216208751268138,0.1130529655816008,0.09795517036009943,0.08639486659497216,0.07603224611362672,0.06513196972517661,0.05365677781964813,0.042575870443542954,0.03325659848625883,0.02700161829052274,0.02472669003579518,0.026784257324876524,0.032925631460351615,0.04240710321229742,0.054241385602007516,0.06758768785715402,0.08255365767819402,0.10017649985819103,0.11993558615827998,0.14015283060489003,0.1588418087249984,0.17433762238140016,0.1857025978713561,0.1929132195348401,0.19682533293328464,0.1989157903684835,0.2008069340478422,0.20356466157707986,0.2069590332309643,0.21240884040520025,0.22288326619806595,0.23950675903095356,0.2618790429126369,0.2885391478803996,0.31739493491749793,0.3461288039824088,0.37257545402039666,0.3950627805890938,0.4127262951951522,0.42579688428097295,0.43585823022943393,0.44469473601420684,0.45081112476090424,0.4538418179935581,0.4549698745328315,0.4560069535382991,0.45869469020104037,0.4642273516785494,0.4729952966031788,0.48455072775406643,0.4977937252910129,0.5113800832422587,0.5243501349369883,0.5369693584064644,0.5507513491712716,0.5661105574985693,0.5820906533990324,0.5971482495530568,0.6097685322864981,0.6188940648645586,0.6241651742078758,0.6259739203915463,0.6253293053055619,0.6235356006701963,0.6216824448447874,0.6199484032522582,0.6178445726094994,0.6171695301661164,0.6192357834197119
0.37370963939476837,0.4016128584847176,0.427002856305282,0.4489117055818179,0.46749387017184174,0.48350583005645614,0.49789528222367047,0.5114986546023563,0.5248482538165943,0.5380879941168479,0.5509981576751486,0.5631296960150755,0.5740469338677673,0.5835962382358806,0.590605096595605,0.5934784030642388,0.5919398221548766,0.5867663504675459,0.5794472866556309,0.5718558331150808,0.5659335147675961,0.5633861305802357,0.565392654586997,0.5723255902020202,0.5834861012651055,0.5968485837773194,0.6100043244451376,0.623238000459191,0.6359612171684444,0.6464950411881552,0.6529413244559952,0.6538154290800265,0.6484397703833503,0.6370974896238474,0.6209467595394003,0.6016974705041328,0.5810463250558033,0.559873968773428,0.537255227269056,0.5113373419412655,0.48229811024660457,0.45186369550186206,0.42233833447160074,0.39587342206081394,0.3739565720311413,0.35712580728223947,0.34490233520037433,0.335950930722283,0.32845451136550513,0.3207229867165651,0.3120107226643031,0.302939414470658,0.29328066496354677,0.2820561942181665,0.2682786788436121,0.2512972871985037,0.2310180427079342,0.20799713839839817,0.18340967537002076,0.1588916868169568,0.13625781107868293,0.11709201852546748,0.10221261705197834,0.09099506462437043,0.08099211722238744,0.0704740762357572,0.05941077912307244,0.04877362390356249,0.03992876979466433,0.034174715528041764,0.032421289404950523,0.035013864441223695,0.041696866723672725,0.05172094644176021,0.06409540049049219,0.07797951754233812,0.09348497050082265,0.11159118130971105,0.13160576207819116,0.15164644046261236,0.16956655183362565,0.1836345438690199,0.1929641039275654,0.19769897412933135,0.19894981922336355,0.198481982052361,0.19815861524540365,0.19913377365170923,0.2009882535570746,0.20482848265468498,0.21353270623141157,0.2282758598773849,0.2487802774053435,0.2737270626318949,0.30114621629587573,0.328796031308665,0.3545275316938399,0.37662592549878754,0.3941365436269781,0.4071799890736922,0.41724745227155186,0.42604906192907327,0.43198132411703066,0.43474219633616484,0.4357003866578289,0.4368782153626642,0.4401825561999117,0.4468822286490121,0.45733331091224605,0.47095205585922595,0.48643443010407006,0.5022238320092093,0.5172254593034756,0.5317605999882952,0.5476242165749918,0.5653191019454177,0.5836931344070916,0.600884935598075,0.6150703073216061,0.6249815224642081,0.6301998010172641,0.6312222555596131,0.6293003535028667,0.6260525707409578,0.6228503892927479,0.6199772681953082,0.6168607812018779,0.6155042612865238,0.617400767489706
0.3719588266744911,0.3997820465085733,0.4247297619012941,0.44574351326608946,0.46308733207686975,0.47773650914793603,0.4908923822237499,0.5036220074799925,0.5166238635752755,0.5301187276015324,0.5438659877490826,0.5573062599587364,0.5698284416082063,0.5810796389075069,0.5897082177963231,0.5939693983936791,0.5934772378738772,0.5889542337059382,0.5818969405014079,0.5742460092892153,0.5680610067191761,0.5651981737229977,0.5669929641039275,0.5739464494398745,0.5854167687311633,0.599313411579397,0.613149702863217,0.627504344968377,0.641890950363685,0.6544917691217669,0.6631492394352322,0.6660939402951163,0.6624085491076098,0.6522275129514881,0.6366723275498404,0.6175237745176575,0.5966290778021438,0.5750453695997068,0.5519635443713758,0.5254009645128035,0.4954128044357738,0.4638116104334323,0.433094676748388,0.4056245956590833,0.3830538570184315,0.3660001863311519,0.3539643315948384,0.34550107008831876,0.3386276411091871,0.3314933642408904,0.32328041405039504,0.3146305638170789,0.3051507901976772,0.29373258007307335,0.2793604402512892,0.2614338408884894,0.2399645993982851,0.21564652043704172,0.18980180376764302,0.1641992215998752,0.1407493948292559,0.12107209694807515,0.10593852508615126,0.0945805937015635,0.0845120778601385,0.07409919530364728,0.06335579590843404,0.053248219708294596,0.04510081147564209,0.04014607779711229,0.03921583218292853,0.04257788304507671,0.049912729890072234,0.06043204199346063,0.07314477198945926,0.08726081488647205,0.10298775994006684,0.12132801512205237,0.1415025977124665,0.1614983103415676,0.17904738802719236,0.19234508330713862,0.20050059490912442,0.20372655683335156,0.2032640557045734,0.20104222305609837,0.19907640126719747,0.19859962655648908,0.19911956627377683,0.20147787184336027,0.20835842685530745,0.2209209797026487,0.2389939693454305,0.26143154360976506,0.28645857470207536,0.3120128279514338,0.3360802867136256,0.3570152872075488,0.3738546857335946,0.38662784839390424,0.3966568040364313,0.40546105854366565,0.4114304843457999,0.4143714049574083,0.4157834369249355,0.41779378090237107,0.42235535551944053,0.43070890314010857,0.44310845512441455,0.45881193086078176,0.47633404365809395,0.4939641947594504,0.5105478327856497,0.5265215201391237,0.5439260612567055,0.5633305721852642,0.5834578983620337,0.602238118831939,0.6176390489186636,0.6282459091887707,0.6335885188497347,0.6342185160930002,0.6315335732389671,0.6273508311382294,0.623228943752289,0.6195379119841682,0.6156814496662921,0.6138074528223691,0.6155318021496173
0.36584008603077106,0.3936295335504648,0.41839297342545045,0.4390415104362658,0.4558967305023268,0.4700387452276848,0.48278762260649377,0.49531700725092664,0.508401009266706,0.522293812283066,0.5367416166539599,0.5511285795508561,0.564754222954409,0.5771646654963565,0.5869804541964992,0.5924687126526698,0.5932185126503923,0.5899059294154161,0.5839756136249946,0.5773230386999442,0.5719776352302721,0.5697856870664134,0.5720940350992412,0.5794338075216745,0.5912061229694241,0.6053664695817788,0.6195328539987347,0.6345579837122276,0.6500791137773962,0.6642350114810973,0.6747243728958714,0.6795896517325454,0.677725903267485,0.6691143785285075,0.6547805774418617,0.6364787470602115,0.6160999118957197,0.594805025254177,0.5719176676490457,0.545387488027007,0.5151143329801571,0.4829045521074454,0.451347198392461,0.42294239298852,0.39948479717875635,0.3817083650340143,0.36918554203331544,0.3604887655787937,0.3536026248114179,0.3466056498624149,0.33859664108720733,0.3301111306927825,0.3205479830687248,0.30866438201083785,0.2934127154576007,0.274239852317418,0.2512610868524951,0.2253065840935097,0.19784503338932427,0.17077860138493467,0.14611504348146168,0.12551197537634987,0.1096963964104722,0.09776185468646184,0.08722432324287308,0.07660011752533694,0.06597035067198381,0.056292809160091065,0.04882693136260804,0.044703455080719885,0.04463420569899902,0.04876861888132721,0.056688788511858594,0.06754812434805613,0.08035608217452063,0.09440126031226571,0.11004799260210046,0.12840890343140618,0.14871131270081328,0.1688829425929246,0.1865677781964813,0.1998707433146541,0.20782973496950777,0.2106180355049392,0.20947571200413537,0.20636727541684022,0.2033719284986231,0.2017987758615987,0.20120924250180142,0.2022593703152396,0.20737125904379713,0.2176373938187181,0.23297039860367824,0.25241047431986646,0.2744222509518149,0.29719418850714485,0.3189336647858552,0.33815070419868404,0.3539403957463137,0.36626321564204506,0.3762202969143376,0.38505546703345445,0.3912226938300787,0.3946573241350381,0.39693412927310395,0.4001944576926,0.40634458730678696,0.41652529906331937,0.43085210238739563,0.4484278205617436,0.4676252453851179,0.48664147648685574,0.5043233196697109,0.5212490602342509,0.5396375251674498,0.5600871588872114,0.5812587604440117,0.6009813021373034,0.6171211482845088,0.6281893709746315,0.6336856533553378,0.6341814418542204,0.6311387855591603,0.6264675903624987,0.6218207582370352,0.6176258610822977,0.6133012040918308,0.6110788947745714,0.6126435865406743
0.3569117370949209,0.3847001203853496,0.4094626367145657,0.4301249242957285,0.4470320681572806,0.46129050923320675,0.4742441290956772,0.48708416937948584,0.5005934658772678,0.5150244676735147,0.5301113657169747,0.5452164301374368,0.5596101061197122,0.5728108919876479,0.5835177732576631,0.5901175438740514,0.5922304841869103,0.5904917818329345,0.5862553085675652,0.5812966556123644,0.5775171885439543,0.5766468045846004,0.5799472327655767,0.5879146985321514,0.5999835284453421,0.61422824543252,0.6284902019407305,0.6438744486200041,0.6601505690763245,0.6754763973479209,0.6874863057030507,0.694104004362049,0.6940780523949032,0.6872402916471475,0.6744874949916676,0.6574867055751975,0.6381028635347585,0.6175500707455921,0.5952876523982927,0.5692388420444112,0.5391345071920051,0.5067161572445579,0.4745963078824863,0.4453597617927195,0.42092237660700277,0.4021519013655766,0.3887463399119805,0.3793757317196859,0.37207641490522103,0.36491737194888946,0.3569117370949209,0.3484129892111317,0.33858621230245056,0.32605158761159014,0.3097274791874492,0.2891061586401381,0.2644051160330988,0.23659039348213698,0.2072768389021047,0.1785001855036019,0.15236599847413027,0.13057109951864398,0.11379964075062622,0.10100963744837081,0.08973419624506813,0.0786597503791503,0.06794315036225504,0.05853354967034381,0.051618700987525315,0.048215656609926306,0.048902695217714495,0.05369652669993991,0.062069690565162344,0.07310973683381235,0.08582628018008547,0.09959522875732182,0.11496332166112716,0.13321647886357924,0.1536550829973039,0.1741971507388234,0.19241674251438018,0.20631214072745482,0.21479868555934567,0.21793159114423546,0.21685597479163615,0.2134827354538562,0.2098947833103429,0.20747741053390348,0.20593905471813384,0.2058193843716724,0.20925032711395322,0.21722749838660857,0.22973157986307424,0.24598783249964845,0.2647182940447915,0.28439471141280126,0.30348954652115206,0.3207156711748058,0.33526439691997817,0.3470440171513373,0.3569117370949209,0.36579244563393903,0.3722379030069061,0.37631480477632717,0.3796343725330735,0.3842977010396941,0.39211363413075606,0.4040890336520217,0.4201908290514794,0.4393818651890641,0.4599277264196587,0.47997677298940444,0.49841221627945714,0.5159556798660667,0.5349419536587904,0.555965880578051,0.5776653663318775,0.5978411670758516,0.6143331125650686,0.625633022765966,0.6312316830089029,0.6317039028845611,0.6285271172899155,0.6236367074156687,0.6187171677823806,0.61422824543252,0.6096197586625945,0.6071659207241552,0.6085848577686551
0.3474722328847439,0.3752122102946157,0.39995880125215594,0.42066248619315627,0.4376854738100957,0.45214446665662134,0.46538735826717126,0.4786041390209806,0.4925716731100811,0.5075327305944828,0.523208619124958,0.5389466467277879,0.5540006943475292,0.5678777143308087,0.5793778519027162,0.5870315107196189,0.5905056052276795,0.5903994669783728,0.5879703098903212,0.5848585895847341,0.5828149516167943,0.5834263852590708,0.5878435954384916,0.5965084276365147,0.608882749277251,0.6231766955572086,0.637483167633554,0.6531473512972144,0.6700699935146563,0.6864436457005667,0.6998613423469635,0.7081500034293671,0.7099269716940835,0.7048806381641685,0.6937743084529,0.678174739891113,0.6599035487196544,0.6402122817949334,0.6186928311927815,0.5932666032344096,0.563510302798549,0.5310853854145178,0.4985977596037505,0.4686849264354417,0.44335914318256386,0.4236108613749193,0.4092676957327816,0.39911486578993155,0.39126693134142276,0.38380892023398083,0.37568158505346766,0.3670514437503029,0.3568595595163606,0.3436040855612523,0.3261791991275902,0.3041256179812177,0.27775840943041524,0.2481672482467195,0.2170956729861472,0.18669255949157448,0.1591422424671105,0.13616817086563315,0.11841220568681748,0.1047167965103608,0.09264470936047732,0.0810433061535027,0.07013850141160165,0.060868193931106,0.05435019849282627,0.05149447580601381,0.05275537066691524,0.05802915465174446,0.06669030590748865,0.07776996864843479,0.09028090885907472,0.10367890319571994,0.11868054373078595,0.13675498986151977,0.1572945153695229,0.17822181093356376,0.19704838744274347,0.21166310533294388,0.22084653992749867,0.22451492992836464,0.22369311322181226,0.22021274257475823,0.2161428782903056,0.21294372898519598,0.2104946312530007,0.2092477451580382,0.2110504138147088,0.21680007213587602,0.22653972623852453,0.2396732620854736,0.25517389539291674,0.2717929128355516,0.28826643375217514,0.30351133094663507,0.3168191355770486,0.32805014727741355,0.33782180604770873,0.34674845519591485,0.35350430028895397,0.3582944825861307,0.36275630381226454,0.3689315934282734,0.37851101151234556,0.39235024721896866,0.41025707806801903,0.43105202522001573,0.4528991591297829,0.4739094016826938,0.4930155047114737,0.5110908512165779,0.5305721720234087,0.5520408309184321,0.5741246838428085,0.5946199718394675,0.6113643664131759,0.6228474498352448,0.6285575181657149,0.6290666004273601,0.6258506485476034,0.6208479831746512,0.6157542740638954,0.6110541344793863,0.6062304582349431,0.6035659591754372,0.6047905742455326
0.33855978201142045,0.3659754707236653,0.39044205601017107,0.4109415645116912,0.4278554446300216,0.44230904185072484,0.45565016695324173,0.46906166690544243,0.48330818464136105,0.4986170117263169,0.5146926399956359,0.5308661839777321,0.5463779263160097,0.5607309265620237,0.5728295482742339,0.5813552593912357,0.5860401190930477,0.5874674508044713,0.5868109719620773,0.5855776709274677,0.5853559934611635,0.5875668097644011,0.5932195983959566,0.6026718609440637,0.6153941772789469,0.6297377235940721,0.6440658841001036,0.659923886587785,0.6773266666790247,0.6945187856491978,0.7090874255569146,0.7188033389059445,0.7221891437625109,0.7188149378463627,0.7093208608532319,0.6951683527942192,0.6781173013026034,0.6594310110648066,0.6388139739161545,0.6142639955913434,0.5852874590826191,0.5534457591969931,0.5212558527644273,0.49130282052864155,0.46559761554385126,0.44518361943611673,0.42998807401183253,0.41892428698956385,0.410233410138798,0.4020854193109647,0.39341287103699557,0.38423989336389663,0.37335884096131383,0.3592226662561136,0.340753069151135,0.3175559463503987,0.29002098534322934,0.25930228401144323,0.22718342770933903,0.19582393126224276,0.1673902013316537,0.1435683213340794,0.12495885421535419,0.11038634799416451,0.09750299705498136,0.08526717417768677,0.0739356979106283,0.06441995896941032,0.05777689093844696,0.0548413527118614,0.05599377894273275,0.06107093705403332,0.06941023095397048,0.0800336687051319,0.09197377156495923,0.10473361232580736,0.119120959205891,0.1367710377105916,0.15718645720427932,0.17831865414157647,0.19763724552176298,0.21293259347276247,0.22284747631684387,0.22714345373545464,0.22669791407091824,0.22323205534018659,0.218772818862949,0.2148435586290688,0.2115141463378464,0.2092101148056767,0.2095481524185512,0.21334573290076525,0.22069860047396767,0.23115908370489224,0.24390833182608898,0.25792854443625574,0.2721734534150273,0.2857274574725379,0.2979633664150297,0.3087001454104608,0.3183544791109174,0.32731079758074705,0.3344548875366207,0.3401639263949249,0.34608829789389195,0.3541697123264164,0.36592754233944275,0.3820134264355741,0.4020329791242906,0.42463777144632164,0.44788333240206374,0.4698563399728881,0.4895697984776788,0.5080885528785896,0.5279477263825845,0.5497021482138029,0.5719971256872306,0.592669602063658,0.6095984409752961,0.621299282586998,0.627262912229123,0.6280393791971679,0.6250648865382644,0.620233318777281,0.615212566472124,0.6105042970366826,0.6056230762773334,0.6027393360586429,0.6035248332519907
0.33124282514173614,0.3579048305780112,0.3816956157991339,0.40164702967819293,0.41816409958458317,0.4323744169744932,0.4456115488372327,0.45903268809151615,0.4733704878996305,0.48881908486478626,0.5050539999528627,0.5213867910313179,0.5370531594269065,0.5515751652385582,0.5639659451931528,0.5730574489163333,0.5786702900556034,0.5814031381224599,0.5823716761289834,0.5829610241175868,0.5845901456143692,0.5884889784908507,0.595487694398109,0.6058187223316942,0.6189314568825279,0.6333195982105854,0.6476286919652445,0.6635277144499758,0.6811114697896593,0.6987011570075475,0.713935464872556,0.724598810393604,0.7291840728010938,0.7271917826538641,0.7191643360652634,0.7064567170178966,0.690741794610306,0.6732518370947356,0.6537618038417915,0.6304557986360387,0.6028965043494703,0.5725148012277929,0.5416150253415662,0.5125717154806397,0.4872470444549253,0.4666322185198004,0.4507092831510561,0.43853826736722856,0.4285600537788315,0.4191329752314955,0.4092777984628491,0.39894335440297635,0.38688703704537386,0.3716337716655893,0.3522111527023015,0.3283151519500917,0.300376336625614,0.2695224599710768,0.23744398810764347,0.2061555417910088,0.1776592888048775,0.1535065874301912,0.1342579207125033,0.11886731844943882,0.10517468984089061,0.09218559787638761,0.08013469600580689,0.06988160341845667,0.06242957549731781,0.05857658226892752,0.058694875572234254,0.06264301718629302,0.06980573363695369,0.07926308065209349,0.0900948226619992,0.1018088785916662,0.11519726010782777,0.13202639579874725,0.15192935662690102,0.17292259137277166,0.19246954682304226,0.2082863307016803,0.21888473010086576,0.22385725941400988,0.2239031785068986,0.22059074092071754,0.21586458316506485,0.21128828477887998,0.20713908162343855,0.203908088195377,0.20307258050207522,0.20540233890779822,0.21102848705063043,0.21959956114693924,0.23042968777929812,0.24264795335637057,0.25534537698807297,0.2677112576190871,0.27916744897724094,0.2895026279014895,0.2990010213952784,0.30794615800987607,0.3155480916432812,0.3223908243112732,0.3301165048023056,0.3405140843047005,0.3548678589306015,0.37356624153548784,0.3959690570458664,0.4205372017476796,0.4452198992269227,0.4681028344049995,0.48831613309333943,0.5071520973294101,0.5272205019481189,0.5490285490175724,0.5712801893540264,0.5919211261458919,0.6089365069234817,0.6209101090062065,0.6273428336952926,0.628734229876699,0.6264223597911873,0.6221857011546242,0.6176060528461496,0.6131908287866634,0.6084879615974442,0.605384874293173,0.6053968704575782
0.32670708663481635,0.3521424557101875,0.3748408538647378,0.39391405847190053,0.40979698676476156,0.4236072731182374,0.4366391196245333,0.4499915987126765,0.4643310205187374,0.47978784002042263,0.4959876405080548,0.5122168355707195,0.5277220634356115,0.5420839614989327,0.5544291268990286,0.5637232280963411,0.5698932420812736,0.5735874251596906,0.5758985537604268,0.5781132231363376,0.5814874555340849,0.5870469230103117,0.5954135988837477,0.6066575534656866,0.6201753505567889,0.6345933631286632,0.6488314861976582,0.6645794841225601,0.6819644420975863,0.6994077125538933,0.714665350707734,0.725618802147234,0.7308132737426736,0.729745562147414,0.7228996980303252,0.7115323921596459,0.697206217773549,0.6810719592437596,0.6629160424733073,0.6412118297540362,0.6157106323885316,0.5876818723126143,0.5590886172288755,0.531930055741118,0.5077658216300113,0.48742568932264574,0.47089894701217383,0.45741238496724357,0.4456820825765113,0.43436225159266956,0.42266160859296115,0.41052289704987044,0.39678906969347816,0.38018013015441154,0.3599126548726672,0.3357989892370837,0.3082744172922724,0.27834611555987265,0.24747088811603812,0.21735540451039892,0.18968401361471973,0.1657707191369541,0.14613588449997578,0.13001699853848053,0.1155554237360399,0.10175279056471216,0.08877159011674943,0.07739043436972602,0.06855720568284525,0.06306092330213889,0.06131877834027637,0.06328347466121428,0.06846401693551228,0.07606383866138694,0.08523989813058447,0.0954741887825535,0.10744416288619771,0.12300008977262104,0.1419169420532296,0.1623133874811418,0.18169064884419736,0.19772750805239225,0.20882509883594835,0.2144070889122339,0.2149733317055977,0.2119040746442131,0.2070208280425305,0.2018962811095896,0.197016437393395,0.19303277071410546,0.19139330815286343,0.19285836290224556,0.19757379561025123,0.20521960263301245,0.21515134101493907,0.2265423214352391,0.23852364290410988,0.250312833750904,0.2613415922379255,0.27138277906904995,0.2806718951053266,0.28953700101715824,0.2976007869801629,0.305669177431216,0.315351604798148,0.3282415860677129,0.3453441649583828,0.3667504282405599,0.3915575702020572,0.4180384112947198,0.4440551722932562,0.46772131400635614,0.4883099231583438,0.5073451349462569,0.5274615904265841,0.5490953223697748,0.5710509911135698,0.5914533022156889,0.6084615594431132,0.6207710541291831,0.6279007215441315,0.630269262251778,0.6290562726037,0.6258512046611852,0.6220891227626028,0.6182728595122037,0.6139899375219632,0.6106823328276231,0.6096158129043243
0.32586115512205766,0.34963790550941726,0.3708839766331666,0.38882917104385434,0.40394558282954296,0.4173245534474143,0.43018799022405285,0.44353428585879956,0.4579187925873767,0.4733688460404845,0.48943303425898,0.5053655427258092,0.5204444962895307,0.5343605766315247,0.5463572309462909,0.5555006518445625,0.5618306676514291,0.5660754031757264,0.5693425439865982,0.5728540437534277,0.5777239171475504,0.5847782973761767,0.5944192942812722,0.6065305477162666,0.6204279055676768,0.6348504729746013,0.6489610606621936,0.6643576477666611,0.6811454721629402,0.6978626436527446,0.7124436504672546,0.722949351028691,0.7280619680012245,0.7273465940823689,0.7212774617493162,0.7110313603041358,0.6980451018707396,0.6833397639483217,0.666646267008138,0.646798917538154,0.6238475803895285,0.5988757501906014,0.5733991939530857,0.5489060583808038,0.526526710532553,0.5068387670485225,0.4898003340388914,0.4748202230439168,0.46095233259193685,0.4472342419258266,0.43314364784557624,0.41867383726580665,0.40285487527564035,0.38470636011214426,0.36370313476922744,0.33979648593151807,0.3133962895837013,0.285310008164277,0.25664377641374003,0.22865969741595205,0.20259550125297687,0.1794414077406244,0.15967636308073155,0.14294773829930404,0.12780602334564817,0.11322483115994436,0.0992593096723776,0.08657957574889301,0.07606577181812332,0.0685053811933509,0.06438796919766315,0.06380354678649766,0.0664370623750234,0.07166286170223189,0.07874361760359005,0.08712326946059895,0.09730184282800175,0.1111599019863053,0.1286134208214751,0.1479135148046704,0.16664408227620997,0.1824907506394644,0.19377748624479538,0.19977583326337778,0.2007838420934022,0.19797350886749587,0.19301118821081578,0.18744421320123605,0.18194779841253406,0.17741089140505273,0.17536069924132866,0.17658535403382283,0.18122356639877,0.18892179374700593,0.19898517215820002,0.21052831584709206,0.2226245806969798,0.2344437950567858,0.24538902395975645,0.2552323800045919,0.26424578287154277,0.27293566004194153,0.28137596138135434,0.29058193181676745,0.302107680405232,0.3173309255822046,0.3369677099269187,0.360817027757615,0.3877339516875002,0.41583538058162595,0.4429328953629926,0.467196554638027,0.48804843060775005,0.5072079205403729,0.5272632432491121,0.5485569911818923,0.5700284174040248,0.5900386551902478,0.6069761006216026,0.6196831635553878,0.6277028245538446,0.6313480166738741,0.6315900055267097,0.6297687600282506,0.6271237514257031,0.6241460544933051,0.6204743278109489,0.6169886608440692,0.6146386837374116
0.3290803840997064,0.35086725913065675,0.3704052414565727,0.38708179265596404,0.4014135480390773,0.41444789043609104,0.4272992979463255,0.4408205839881129,0.4554089924095792,0.470947011114592,0.48687799688947137,0.502416776940459,0.5168951013543485,0.5301686718974886,0.5415992290676862,0.5503086297970424,0.5564430392719467,0.5608308151539362,0.5646289914721306,0.5690320339960176,0.5750443235765412,0.583314474021154,0.5940324775628031,0.60688958523725,0.6211016504127025,0.6354940023150214,0.6494223171558127,0.6642893782041079,0.6801263278204823,0.6955947330217861,0.7088529309966324,0.7182077147783477,0.7225514385201871,0.7215840657040252,0.7158198954665356,0.7063811120523849,0.6945746883049578,0.6812552648729268,0.6660339329914912,0.6481339873582143,0.6279719040825887,0.6064317978331166,0.584518565851925,0.5631268889655678,0.5428813621710886,0.5240518726860047,0.5065415110983058,0.48995057739154657,0.473707492730139,0.4572855645890175,0.4404787859881622,0.42336373509185277,0.40522341267308704,0.385444365867655,0.363804113658229,0.3404070158892243,0.31561902260654673,0.2899982442699778,0.2642263983409808,0.23903528064007085,0.21513457816269077,0.19313520153953426,0.17347134306991116,0.1562765891806249,0.14059259728081644,0.1253728675361282,0.11055119594873904,0.09666742315768177,0.08451276638171583,0.07485842275065958,0.06826196233416229,0.06495742950532107,0.06482171130978784,0.06742217786260128,0.07214813700626052,0.07841786745271115,0.08653641074231365,0.09836759478492572,0.11395400199194589,0.13169887138072675,0.14930624830683276,0.16451308151274546,0.17560767987560005,0.18174048721375707,0.18302409004591114,0.18042102829638312,0.17542436100563344,0.1695235324758415,0.16354500693420673,0.15865974773099037,0.1565613060936543,0.1580952659639686,0.1633736445062466,0.17195472864702596,0.1830159337133796,0.19552776105759032,0.20842493539151852,0.22076728050130726,0.23189777467178044,0.2416021420435903,0.25026136676299787,0.2586600125469817,0.26730461280327056,0.2773812651160278,0.29037234320046545,0.30744629796512746,0.3290578383282484,0.3547587547421924,0.3832174421317475,0.4124520782361772,0.4402708524718057,0.4649242282004138,0.4859670696018518,0.5052413440258969,0.5252069735583881,0.5460958840444923,0.5670009747876639,0.5865533589657559,0.6034032032671938,0.6165606387573562,0.6255958690823887,0.6307006210199811,0.6326077993076121,0.6323716099249855,0.6310081253490606,0.6289944645513342,0.6260357814071104,0.6224000167363707,0.6186924339687946
0.3360890008148388,0.3556910518527586,0.3733906155700681,0.38876673074330936,0.40238662432965144,0.41523845223527206,0.4282989716930242,0.44223676694630354,0.4572504897109719,0.47304212931123746,0.48892575274607564,0.5040714134580017,0.5178841890817956,0.5304332363135813,0.5411978474696965,0.5493073208115975,0.5549954226555907,0.5591975095644915,0.5631435723730187,0.568034485397649,0.5748019374997186,0.5839505885138182,0.5954836956766406,0.6089116142203009,0.6233440592637003,0.6376641693635968,0.6513628622583455,0.6655713259363165,0.6802049516882946,0.694043997058424,0.7054922571776389,0.7131422350522627,0.7161446128350485,0.714383295195417,0.7084552038593224,0.6994562533250958,0.6885712038561446,0.6764693778704398,0.6625935495591211,0.6465362730379982,0.6290968424135647,0.6109595951704978,0.5926081647536801,0.5743288437312891,0.5562253737679105,0.5382499820587165,0.5202452752192875,0.5020039685324453,0.48333486485248295,0.46415444121574906,0.4445783626268369,0.4247701993031632,0.40428578862334613,0.38289851595794405,0.36070163046543796,0.3379566784871698,0.3149809650265465,0.2920708795889632,0.26946506110496593,0.24734333949383602,0.2258658754671023,0.20524809683367465,0.18587434428250357,0.16837736914316404,0.15233155915446372,0.1367071243710951,0.12132531399894127,0.10658314017213569,0.09315694293241869,0.08176831937444107,0.07300815341955566,0.06722436031711185,0.06446534843031645,0.06448507722166714,0.0668110355179152,0.07086780465159881,0.07679894137159324,0.08641798503101128,0.09987204091301138,0.11572186058656213,0.1318167144968483,0.1459815232586561,0.15651024957053467,0.16247153559113683,0.1638234477082427,0.16133637536289722,0.1563278840381367,0.1502040142396855,0.14389250907060974,0.13885043907815434,0.13698816034184566,0.1392243592578479,0.14563015216062042,0.15563993181517857,0.16825490498799456,0.18224758335546754,0.19636435449645637,0.2095166260747888,0.22097043408902106,0.23053595843660055,0.23875159650940744,0.24673036329841028,0.25534148419300107,0.2658860663623578,0.27976787289467975,0.2979777393029566,0.3207682205980763,0.3475190242153039,0.3767911491610497,0.4065745866156172,0.4347233811599841,0.45958239974662407,0.4808041905541725,0.5002582485547005,0.5201984822336275,0.5407362864376873,0.5611190408788501,0.5802519300451485,0.5970510885658545,0.6106970301151393,0.6207867577174663,0.6273872698186301,0.6309876550729343,0.6323510337224628,0.6322672724244195,0.6312040627010119,0.6289489691640315,0.6251801874208697,0.6201709810929327
0.3459800584952043,0.3633507627494997,0.3792057794368794,0.3933369747738935,0.4063660705040799,0.41921234720448325,0.4326961021999059,0.44727746651600403,0.4629312429112069,0.4791570086067845,0.495125121583642,0.5099582994258525,0.5231487839517273,0.5350114810973021,0.5451403220215417,0.5526294109406609,0.5577731702737694,0.5616048325740618,0.5654353561655916,0.5704946656790796,0.577674859985165,0.5873750565051121,0.5994486001429477,0.6132519218358528,0.6277956955219881,0.6419978565793666,0.6554311508876499,0.6689199241461075,0.682240671658095,0.6942762936459786,0.7036700848232101,0.7093045746697678,0.7106032587726255,0.707656810127199,0.7011712016846534,0.6922422420169233,0.6819511483348238,0.6707847053935337,0.657994622646481,0.6434805348329686,0.6283861822193539,0.6132101603540272,0.5979591425999687,0.5823656383243822,0.566063168676929,0.5487215743204755,0.5301377546305063,0.5102893326557575,0.4893383890236949,0.46760617863374543,0.4454916533971787,0.4232189800506169,0.40058879187502167,0.37773211982288046,0.3550370482123332,0.33291594085017057,0.3116477791074483,0.29129345266294987,0.2716878272298102,0.25250357700200227,0.23339296548097072,0.2142011150342129,0.19525504030896612,0.17763381350651594,0.1614376277571648,0.14571045760997742,0.1301900557887849,0.11512970554845113,0.10106456028496319,0.0886211746336999,0.07836678444799239,0.07070311558661906,0.06579774360886466,0.06355827421537008,0.06365003295635012,0.0655521267769484,0.06932223260006667,0.07671335284321013,0.08795251425570685,0.10174937443842459,0.11610645285070442,0.1289587143925108,0.13863870545232293,0.14417269763018817,0.14540327106008755,0.14293939659557858,0.1379370622426154,0.1317039558477594,0.12521683795406344,0.12018122947179538,0.11872672763966594,0.12184353241228565,0.12955502704168495,0.1411611969365027,0.155475176546201,0.1710602331916656,0.18646472505347297,0.20044616198211593,0.21219313453949956,0.22154753433802754,0.22922127944786924,0.23664846762902564,0.24495562610842042,0.25549757997906364,0.2696040497779915,0.2881388189259752,0.311230978598366,0.33817841388197206,0.3675214664807835,0.39729181954273163,0.42543013399424345,0.4503769324615944,0.4718352966349567,0.49160308214035936,0.5116695536023317,0.5320247671804008,0.5520524563404495,0.5709055409303568,0.5877414823922523,0.6018947584176397,0.6129849873166381,0.6209638136892389,0.626096530195511,0.6288812821966593,0.6299053521165551,0.6296374907413709,0.627962079409312,0.6240549842739024,0.6179060364010766
0.35737451540121806,0.37260472280783336,0.38671295032290337,0.39970765307622175,0.4122659092841044,0.4252369110062028,0.43928140062237053,0.4546473286554471,0.47108182893575484,0.4878790675405241,0.5040643428710343,0.5187145196224677,0.5314143795612899,0.5427339523495401,0.5523770413009668,0.5593741418306782,0.5640492298224118,0.5675093950093308,0.5711363810299595,0.5761949093362732,0.5835597995554799,0.593559463239171,0.6059383132333582,0.6199357715294739,0.6344839676426637,0.6485224194542302,0.6616680971143796,0.6744521420568311,0.6865114385943355,0.6968069811850887,0.7041875087885807,0.7077931638811114,0.7072973489006297,0.7029878393848642,0.6956860150939819,0.6865061422745099,0.6764524031653985,0.6658550762709777,0.6537826183787064,0.6403491651808283,0.6269564142008105,0.6139437800946823,0.6009330526636913,0.5872192652574395,0.5720733794519209,0.5549588648079938,0.535659088603988,0.5143213547350556,0.49140567505965643,0.46755888249770206,0.44338712761244287,0.4191222104614498,0.39473879808495665,0.37065237518758903,0.3474958586089163,0.32581642770112973,0.3058781238687392,0.2875673460167835,0.27040496588243174,0.25366095529191063,0.2365764376793963,0.2186879585785419,0.2002570701235393,0.18269743952066186,0.16657854031836708,0.15108448768830735,0.13591306038042936,0.1211843524467806,0.10727126452548814,0.09465625163027344,0.08381365216472508,0.07512029928444071,0.06878857541443041,0.06482645151603182,0.06302641777847454,0.06297620866652702,0.0647543421216051,0.0700703907386433,0.07920977319304795,0.09101111247344226,0.1036194520056766,0.11508262126520077,0.12379024772741537,0.12875705701514775,0.12974926957129204,0.12725316700064376,0.12228913828081989,0.11606522100086145,0.10956104895732675,0.10465715994912356,0.10365406345573747,0.10759306891809692,0.11645084604736976,0.12941041102884454,0.14512501565724548,0.16198228804723894,0.17836649315040198,0.19290984313095125,0.20474172893594023,0.21373824316304693,0.220766194755743,0.2275168840055643,0.23525374800692864,0.2453314264816521,0.25902114211429617,0.2771200903446236,0.29971734203130285,0.3261170269532364,0.35491630267156965,0.38424358589187513,0.4121500721491168,0.43715954925140493,0.45897474635262314,0.4792380952633158,0.4996461925948445,0.5200756340952707,0.5400125310927075,0.5588047477270182,0.5758008763820416,0.5904566672324901,0.6024074686583654,0.6115094855763998,0.6178469824350201,0.6217066225447916,0.6235199235635123,0.6237715252368315,0.6224525562290415,0.6183722979169309,0.6113127537764746
0.3687177214133123,0.3820024067801368,0.3945298781290327,0.40651029591333315,0.41867396305340254,0.4318072671863592,0.44642554685164243,0.4625825927974817,0.4798168506122678,0.49723426178702596,0.5137279153393869,0.5283344239338574,0.5407269649147941,0.5517156501219346,0.5611081437008087,0.5678623020401159,0.5723015449100115,0.5755718105495806,0.5790977560287347,0.584166625399508,0.5916423278702677,0.601807607474908,0.6143352840561971,0.6283887774160686,0.6428510672216857,0.656683306820839,0.6695321787179569,0.6816956273848335,0.6926925880917015,0.7015328344023514,0.7072139848265734,0.7090697093670977,0.7069662229851277,0.7013489726596026,0.6931382998866322,0.683475905849441,0.67331915331972,0.6628860388214947,0.6511008797981679,0.6381849035288585,0.6256787300060617,0.613796913145916,0.6019015641886157,0.5890088387633411,0.5741733172996077,0.5567565284424292,0.536572160901137,0.5139170866427608,0.48947416018242645,0.46410921726483745,0.4385336198465815,0.4129160888161057,0.38730489350822134,0.3622964930484478,0.33869778921017835,0.31716857020814804,0.29799056301733456,0.2809601406914399,0.26540959619003934,0.2503515035060313,0.23475118021866917,0.217923765831693,0.2000563131205466,0.18274556982707782,0.16693224179712607,0.15200460409082447,0.13767002179700424,0.12393581707782439,0.11099950294038435,0.09915563421178977,0.08871650839056228,0.07995011925988167,0.07303039796282354,0.0680022572915097,0.06476541143004078,0.06306886778187742,0.06313199991419961,0.06666287097079159,0.07399300409114225,0.08406297642051933,0.09513247022740014,0.1053460257872516,0.11314964990001872,0.11756400006673363,0.11831091357015121,0.11579275182742896,0.11092781725154367,0.10483633444882656,0.0984685161592042,0.09378090237108294,0.093154533106898,0.09764464712871937,0.10718970120017256,0.12089723894903007,0.13732381461079862,0.15475474464191186,0.1714820188617838,0.18607148654721523,0.19762750029328371,0.2060584734894035,0.21233604248919616,0.2183008108400837,0.22523912221973,0.23446814488718443,0.24722505281092907,0.26430025552095,0.2858165746740049,0.31115469504187665,0.33902314213707035,0.36767741082520106,0.3952819224422814,0.42041962344754935,0.4427472593531022,0.46369787196517565,0.4846834800104973,0.5054826575979547,0.525639404831356,0.5446262082560622,0.5619158324742262,0.5770416187460062,0.5896455623327852,0.5995166048895095,0.6066157655022619,0.6110903348253949,0.6132776884318047,0.6136955151028533,0.6124450275104093,0.6081288711132626,0.6004091671881335
0.3787144547425499,0.390297641919524,0.40143136684509084,0.4124980039494657,0.42427613210822396,0.43750347239968573,0.45257736797797365,0.46939210429936706,0.48731413558631714,0.5052942277793564,0.5221168622376898,0.5367872312084586,0.5490554940446856,0.5599371141465497,0.5693383731347355,0.5761537569312275,0.5806820441781926,0.584068908298724,0.5877427535090105,0.5929864279156307,0.6006444297147905,0.6109647061191296,0.6235769384464358,0.6376053007687343,0.6519169367569098,0.6655062076840597,0.6780580090021548,0.6897286880724495,0.6999570733278128,0.7077724817521921,0.7122543070334862,0.7128473889275667,0.7095327136462594,0.70285336582449,0.6937957850297931,0.6835270682989572,0.6729868886954555,0.6623350626700284,0.6504119345152424,0.6374434717164604,0.62498086042423,0.6131498352712126,0.6011872230521261,0.5879998633549485,0.5725840373687142,0.5543110057261161,0.5330721938707279,0.5092924196157679,0.4837973792220607,0.45755780204845764,0.431281508137663,0.40499912345906885,0.3787228460992737,0.35311734392142696,0.3290868952628921,0.3073796636413205,0.2883302544060747,0.27173707638378936,0.2568796877395757,0.242670515678828,0.22794629637623148,0.21189558729169244,0.19462227573859167,0.17774257343413644,0.16244987364304975,0.14838630403470995,0.13531616513607436,0.12315837029061172,0.11193176115610187,0.10171071130369706,0.09258753558795903,0.08464753123968045,0.07794826925536656,0.07250979620555759,0.06831521683000959,0.06531739388227394,0.06398952705717668,0.06609783309018812,0.07201774161215209,0.08076273361073691,0.09067063855344794,0.09995106200481065,0.10708949482907054,0.1111143536358044,0.11172321856296544,0.10926636172222551,0.10459447800398654,0.09876060819759086,0.09267060836442494,0.0882518622522547,0.08784992454068329,0.0924889975576021,0.10208171850748649,0.11571629945074516,0.1319364907697062,0.14902173000579683,0.16526595337596695,0.1792449010342918,0.19008097278565503,0.19770973889937707,0.20313959218866975,0.20823102388190054,0.2142036307861301,0.22232063814298317,0.23381302984714555,0.24951367205240602,0.26963176277147943,0.2936675942288121,0.32046605231122127,0.3484132126496243,0.3757703215819472,0.401149155753379,0.4241274246883182,0.4459113139189668,0.4676674040909304,0.4890964266524584,0.5097542719453674,0.5291639600265557,0.5468515629572214,0.5623821072308801,0.5753954298585856,0.5856430539957158,0.5930248262343669,0.5976254744509504,0.5997522116769552,0.5999718235785273,0.5984918729296355,0.5938624921779977,0.585710317257502
