1.1672922221330435,1.29411010400975,1.272504617320298,1.206778595799557,1.1161991045112647,1.1520362216270443,1.2436757751167455,1.2137410957203012,1.1914113744358734,1.2196544204646378,1.2816401303164522,1.2486382790582662,1.2690693279256986,1.4707167018252623,1.6653286760372403,1.930486844097338,2.070986836133108,1.979312982328843,2.0212785705150598,2.0256706616171902,2.0490259785448286,2.082026836207338,2.071309294658414,2.022075287334725,1.8662592692424687,1.8868117919470966,2.1639498899931073,2.430890634421278,2.617880979764206,2.971164075044387,3.2194725576606382,3.4313761276924315,3.632733881983721,3.49255650698463,3.2873581071917304,3.0863818936402607,2.772407453715066,2.5328344477842664,2.507856890674938,2.445521744435439,2.372622441529794,2.3751169311332263,2.3591353351541264,2.2664564728544248,2.1114759295454837,1.9465744377910907,1.724779966884268,1.3266472153881912,0.8510486416503246,0.5016322959885179,0.5609605201523626,0.7086741907762464,0.8320202251232639,1.0495134164798938,1.1200572558542117,1.1770585639983093,1.356955765120477,1.5774391768666802,1.790186429477981,2.030297616313712,2.246478225254094,2.412039410411924,2.5420819239352634,2.711402565842918,2.906565293617961,3.0456745648630856,3.093808205569301,3.083143127418555,3.0010626911705143,2.833296110223705,2.636078085331079,2.4062726584274774,2.1303790061043117,1.9098630956606082,1.7629925431611002,1.8165771657331506,1.8965091156410827,1.8984248763572633,2.026476869788552,2.1277213812356246,2.174567971454963,2.2670424236744546,2.453113403056687,2.5729724346403486,2.60156015398336,2.558163730030853,2.512853292853395,2.482777824429092,2.4927576076566713,2.543057487976719,2.580489306822809,2.479342968041169,2.3038559089869453,2.2379445142152226,2.0639021664715815,1.91020804733629,1.7803370276535075,1.5602878442809018,1.4384209607397487,1.354248298090456,1.521671937749723,1.6829228198075192,1.7037772564171203,1.7465485733744504,1.5980200769731225,1.464278078124611,1.4958485330275069,1.4941307955430623,1.3886208010530723,1.4493427499913785,1.4712372995662355,1.4435347695855492,1.5371839379884953,1.619783611099384,1.6416190861919893,1.760190278598042,1.7986214768527775,1.7506923699429653,1.9254049965568236,2.173418524303969,2.2478952086728765,2.2758788218445063,2.343512392419105,2.313483101063913,2.16992584606025,2.1697493958397027,2.3375173222001133,2.564413439104493,2.8090657989212877
0.9903584568446215,1.1351122175462656,1.090540304184097,1.072475574943945,0.9753948595612436,1.0100999116511735,1.1422000419707186,1.1388370028329462,1.0719755140910425,1.1429086883253514,1.2822196788234836,1.3331505426578847,1.4342822210706307,1.5954554093590991,1.5633089009316292,1.6827108939685727,1.8274714745253666,1.8638699074742056,2.012875683551298,2.0888771410053764,2.109981244625111,2.064512953317396,1.9384324586134538,1.9400656167491932,1.9907171903109189,2.1124602155785595,2.369974605704894,2.5732958906274623,2.727277332889192,3.057669097225927,3.2953796177262418,3.455639471218433,3.516875770229956,3.2722620098654387,3.0593461939409066,2.9501681998969134,2.769456142068253,2.6553343252279125,2.636246710502407,2.5735562513560453,2.5037620083963086,2.449252993893214,2.329369219070913,2.2500682526773343,2.203468739160335,2.071644364503164,1.8382601296885923,1.4508960686550643,0.9823128216524369,0.608430547198269,0.638884525315658,0.7219295148639594,0.7824494971168714,1.052828577450899,1.2212695972249221,1.2714316886347965,1.3966516521601697,1.6190059001798989,1.873719595392376,2.0423202941105063,2.1729387374422267,2.3280693330289917,2.5412386743624324,2.785229461836106,2.972875008138206,3.0304955776873514,2.989039456650851,2.924023937227641,2.8578929926065655,2.762723630550662,2.6124661694203573,2.447855588562005,2.251664253427673,2.01441730523553,1.7913857342548334,1.8639143215875633,2.0576490474703673,2.1458410404655566,2.2005357220455917,2.2383322871582747,2.298179593539726,2.3601020844168166,2.4430833601256214,2.5793494476767878,2.6651776804234433,2.6774721008385947,2.664942619656369,2.621868167096658,2.5780522833911164,2.563272899519409,2.567634761342958,2.5158347912513475,2.460698844939227,2.3637306185051896,1.9944089230768278,1.6876132099821028,1.4551879071132636,1.1224198021375993,0.9487301228671908,0.9284654104215119,1.1618804428359277,1.3237869588595716,1.314874939166428,1.4303584382871926,1.5031320455405492,1.5305373473670798,1.6155752810715927,1.572189713215039,1.3948400759431852,1.3781511944875775,1.355442901651967,1.3380628178249672,1.492376407136383,1.5714705200549361,1.5806072083549256,1.7132321736950609,1.7869643804068809,1.8126538468854372,2.0532959617642734,2.2496900213456827,2.246526691072779,2.204715318987513,2.2389662089322164,2.290177753879933,2.308216842939045,2.344130045513641,2.4733814249105337,2.664113659303852,2.8714335443776946
0.7996286039880224,1.0355113414500434,1.1119958468473943,1.1131753570333351,1.00967043088649,1.0517445143080097,1.130015667109416,0.9747144823567564,0.8376237026617385,0.9099209716422382,1.0943899809678101,1.2081627944271423,1.3807620391707118,1.5602230169956668,1.5457443253315246,1.6369136644999323,1.7060503558928266,1.6879239850594139,1.9010319863578153,2.042703725388403,2.0822534378797024,2.0834476393635852,2.076019363439978,2.160805843981818,2.215206374848003,2.3238245685823036,2.5836469770798742,2.7610103468491727,2.820044250189402,3.0659749075724054,3.2686674358720977,3.415929418674619,3.451840641790124,3.1720212117599047,2.9903746636659303,2.967004736629102,2.8606494512490928,2.7677313527607965,2.741114741665897,2.6048019512517993,2.4948699688683664,2.4626865311572272,2.3788672019557056,2.2446318847868207,2.0776482108396106,1.8903202362731857,1.6781700766715644,1.3866092994678811,1.0368362800210875,0.7303493915405651,0.7577576006976356,0.861882839837171,0.9861933037682561,1.2306780900013654,1.2788791560328732,1.24199824539509,1.3263367496013632,1.5456718895004078,1.8388819582046492,2.10762576562926,2.256892778113616,2.394288703799154,2.640457081847386,2.9198847645518464,3.084288244502787,3.0558654388453075,2.9199935729437634,2.7785677778391205,2.6885257096940762,2.621082012546987,2.511908719718335,2.340539121148,2.093683236749648,1.9052016318784464,1.8287140954343621,1.997500549183914,2.1834694288781122,2.1840223010809856,2.188677942469805,2.193677886024292,2.264048522728134,2.382736271252702,2.5343109386919767,2.6590844104761016,2.7483750883217635,2.7979102479226117,2.833128227349537,2.835220701183175,2.813084286450618,2.791568494001234,2.7780124158478587,2.6713899653486406,2.5195435552910093,2.3815471421327405,2.0267927829540118,1.6914556802975622,1.3809923368643482,0.9560395848517563,0.7169311332264117,0.6464731528901726,0.8737706051252835,1.0700512942801519,1.1172256396243172,1.2610548692141996,1.3138072065610409,1.3818041625241073,1.5602833595688985,1.5855847438139197,1.3890965516740115,1.3262337558705266,1.2702336210198761,1.2085145195644014,1.3071699565122117,1.3788710371576947,1.3984335983488836,1.5528240772743713,1.654686701885574,1.7007441683666045,1.9359811614259714,2.133015923975162,2.102834685937938,2.0555326036242967,2.1779883530482818,2.3232421746028287,2.3407407476138626,2.3562818830161327,2.473686509042958,2.622537162411371,2.7862073764852324
0.7636427800080199,1.0084993952597832,1.0486574241391633,1.0200041970718543,0.9062543948244568,0.973248012460695,1.085390988790849,0.9494341298645788,0.7968443710601225,0.8616741306192475,1.0501206774142016,1.1794066354870931,1.39427896114894,1.6088807194962649,1.5665823386164788,1.6134061341272201,1.679428858008296,1.7031302516557478,1.956762191805565,2.141728621416541,2.2144100291769178,2.2335209025467444,2.2435882459100585,2.381091526322244,2.4999285384339047,2.6215282568558487,2.8285593264766726,2.8820791990861085,2.799265249528603,2.9362730156579855,3.0922215453915487,3.213810314930395,3.2550189417224047,3.0322690493168314,2.9220742318809516,2.959778226352075,2.9190504225449256,2.8881422204242138,2.887448791161344,2.765511018241489,2.653315771819709,2.5835336530469055,2.403949732254961,2.18252171644465,1.9869752292538383,1.8112084706003158,1.636839836861642,1.4462429789127296,1.2229963041333736,1.0026986522512558,1.0501206774142016,1.1340365052464172,1.2026158551889587,1.4046878849216715,1.4438741849615853,1.4002326173722588,1.4661600488555246,1.671926677123778,1.9556103863146383,2.188744888394849,2.3095423073039103,2.4261488710974692,2.6311890069502213,2.8446178120698447,2.9292385129128005,2.8256691306292994,2.6303146427548008,2.4513609631800506,2.3567078687983587,2.3168516765013307,2.2522467401942934,2.147010854394855,1.9966048932383378,1.8826514869990518,1.8317734267823598,2.0010063945034133,2.196768471175596,2.22339881476794,2.231707192225427,2.2379951141382404,2.3095423073039103,2.4034761157383544,2.476827972478714,2.5316407102361076,2.580271380748492,2.633856884798419,2.6954348879355523,2.757733661614252,2.805625622737057,2.8232395920272957,2.8057435861272704,2.70070878553535,2.5677942933740856,2.4196127281075306,2.024076462483915,1.6609722577261923,1.3309482707027838,0.8768189721256592,0.6118875487847745,0.5388108677871333,0.7636427800080199,0.9365229223682434,0.9310027058277904,1.036986718912015,1.1128892014784704,1.2322035106634852,1.4536201136549738,1.5287033785191264,1.3875627183107544,1.3451366623195888,1.2695735332710731,1.1868521234260787,1.2805365818731342,1.3495471446070642,1.3817442220285032,1.5620415522485187,1.6851852796906106,1.7100861636892044,1.8862362642163437,2.0100899756944073,1.937661590745905,1.8654010036166884,1.9909581319465677,2.1859377989002557,2.2874709363599264,2.3605585043825688,2.50541597018316,2.656426368065263,2.796051412119826
0.7650194938059168,0.9410255732196505,0.9029869264459292,0.894232150034339,0.8472030475009871,0.9547135328349736,1.118024722516177,1.0836061352715949,0.9637079475127864,0.970594300116618,1.1446918716759973,1.3133579930635424,1.5527715597503593,1.766699358670719,1.5736263056504434,1.4819257291484476,1.599330293317176,1.770194650419019,1.989364815740968,2.1852775719707354,2.3493667045392863,2.3972367678958952,2.301543838910382,2.4051311909709447,2.641737297014589,2.842702376108671,2.9697649686155216,2.884072452532803,2.7095896287478083,2.7345252460676424,2.851423872864291,2.9704528306496973,3.036576970880146,2.899458849906432,2.8020625345148846,2.8797691703267327,2.9347158617923106,2.9424415669088875,2.9415027465768118,2.878887012011141,2.8039427113609974,2.703355074907835,2.4154841331662547,2.1145685250849273,2.038125723643077,1.9376838519284185,1.7702587972651918,1.617500521541077,1.4659861038878896,1.3841475327975494,1.4362918050548272,1.4728654355977573,1.4979582652700965,1.6035901202103855,1.6366082092189287,1.614662441140088,1.6528181234325738,1.82852927890625,2.086077605930831,2.289376134806113,2.356911938659037,2.4272726471383748,2.5619707865860097,2.6535004800961524,2.6305028150846534,2.500373916729414,2.26730365041639,2.0499930100350845,2.00115494865546,2.047385579145656,2.0052200018000708,1.9442770319495521,1.9084147656513744,1.8597514263317236,1.771690750343351,1.8702937084284594,2.107544051083653,2.271457483461078,2.2605753143203193,2.2797414578994566,2.40388391524018,2.4248237469521357,2.271472886127131,2.249058512037508,2.2721979558064107,2.2877156160610217,2.3449765426365436,2.5260066747979133,2.668556864524428,2.7353379995988503,2.6743269259170424,2.5689070586737963,2.4889810780721864,2.327779404130234,1.8841740699209901,1.4938963842860022,1.1961570657488163,0.8408184259186662,0.5892177935433447,0.5228374989348809,0.7421710923815105,0.9043617845009281,0.843582493107075,0.8730249676288848,0.9571235861365489,1.1199545714138581,1.3416092043610577,1.4805092096653893,1.44576432096125,1.3388829324696705,1.2028887731111515,1.1746892751823925,1.343299105702033,1.420534259101607,1.4727391832225996,1.6144867950747965,1.7125116815149295,1.7316617574534754,1.829621816608373,1.8432657796524905,1.7615795495895483,1.6901361233809222,1.751683986160488,1.95063272327332,2.2752510240221278,2.4697689739272763,2.611808308563032,2.7342729887497135,2.821523648427652
0.6562003385802917,0.8219166947734393,0.9485254344255463,1.0743215442626384,1.0692457162881492,1.1631640601984439,1.2589495288964685,1.1434043572533954,1.0669507809043437,1.0307722070953402,1.2180942974103262,1.4234150525182971,1.5803778694617867,1.7331442949901281,1.5888601918869085,1.43915799996072,1.5037882980873631,1.6236768359831022,1.7137325747674947,1.8908827119455562,2.1938238711322646,2.423444899049906,2.4032790358425915,2.4073933724926015,2.5939614435391,2.829960474222726,2.9326446671439017,2.8678114435313673,2.731867698521576,2.6906776910166426,2.7907450390193143,2.912858055926833,2.947565396766337,2.843044884389537,2.71239309954375,2.837592155032473,2.9969546331173094,2.9682594662605064,2.9180726934700894,2.831168315416909,2.7711286612840844,2.7462152510209292,2.5561384340901205,2.2341795984883737,2.1599716102265663,2.047242733336086,1.9092242407034627,1.8270792632638837,1.6500970166922526,1.6523752503899767,1.6457705067709099,1.6929503574856726,1.8711257539535442,1.8523458677940923,1.781776125341824,1.7448441044517262,1.734752388998352,1.8634508111374883,2.0966973111677216,2.388767002664383,2.4303512936770355,2.469098524947293,2.6177387061420294,2.6077746039419383,2.499378032303226,2.402559904540585,2.151145851649129,1.8847991459871183,1.9141276546982076,2.031383519734975,1.9513498635178421,1.846782613482931,1.8060116017953076,1.7939718820929007,1.8321265591913167,1.9209403923009558,2.085947649802139,2.176139538257145,2.0548573529095653,2.006631580367663,2.198555659837997,2.302050766012007,2.1938441296589004,2.186521430041663,2.2455896646255042,2.1948063323514906,2.1443846843682888,2.3255152122204383,2.5070895409866334,2.5829935081474074,2.4292899943136943,2.267941902257094,2.1642834443144907,1.989290627102692,1.7130358670255055,1.4039522684369217,1.1096440020147182,0.8308626127035189,0.6043075813437836,0.5029397287182245,0.6955206851155347,0.9063949364199286,0.8987247798740972,0.886203835109202,0.9140151116237085,1.0766331813325254,1.2454500509014812,1.3971541873369362,1.449064574130975,1.2682184079488892,1.0891553632593527,1.0670874254397298,1.1427174849487653,1.2225686172534913,1.3652174087859839,1.4351719879321039,1.5028234664256674,1.6413548284033204,1.7230900346142444,1.7516416597578905,1.7595236184264753,1.7745827710045738,1.8380324764285856,1.9892941737946526,2.3076865953350025,2.4839796963169536,2.639072512071221,2.8095387040697832,2.832325432971881
0.692825775279123,0.9017763634954958,1.1309349402829667,1.329962747507776,1.2405678387693455,1.2606901538766546,1.3284312647521894,1.1933934934251802,1.1207621907230485,1.1478671096324964,1.3688182923051775,1.5296365079063152,1.557159154542093,1.6192014336232468,1.5482334023515045,1.4302007001408663,1.426182831192502,1.4488607517026828,1.522311364894262,1.696722990010072,2.016613010567064,2.312521516952289,2.4033281511712907,2.4434211981201943,2.6266150337134357,2.863329020277548,2.984760237244358,2.966498242534153,2.868776244264015,2.835913821155562,2.927358954647654,2.960057268225831,2.799440555374363,2.6246966285636257,2.53032839071677,2.7082146469766157,2.9359910664536892,3.000114901414432,2.9771537326799264,2.900110153805518,2.847726305140114,2.8238258830668563,2.659702805867797,2.4125035317107026,2.3191646435202946,2.2076141595038856,2.1700860585304405,2.2135533409326005,2.0095372890658236,1.9201882249092348,1.8671248959817444,1.8929073893053228,2.0440446194822384,2.0242276861994433,2.0362167479868667,1.9962052899343112,1.910354929386663,1.9751112546863308,2.1572923814176423,2.3138671470566448,2.2731525808821678,2.329090393700495,2.543912614304097,2.5359713337208745,2.4125915248531142,2.2967962918545415,2.0347685455599573,1.7727653955910332,1.8158333530506017,1.9124842087877778,1.8414070057078011,1.8202407888268195,1.8879986477820083,1.876688737635533,1.9429492440399336,2.044462088177789,2.148573142482548,2.112624185928118,1.9202159605332971,1.7755560462964552,1.9257156711147279,2.1066910356638218,2.1750048287976655,2.2156791253512576,2.2835772784695316,2.1993790374972955,2.0325415844920514,2.0063600465203817,2.0802068240924294,2.0983610078725254,1.9276638957332295,1.8218577285428568,1.8496524425519991,1.7255950400940985,1.5308090590563888,1.2983673637919508,1.0000188357904143,0.6479281790383633,0.4499873422869835,0.42324212820925605,0.6406819978866182,0.8304656074395496,0.8227051380726842,0.8799171967518932,1.0556830811765348,1.273449128597261,1.3535296307241742,1.320474519644817,1.2973207866556002,1.1947618563800364,1.073525306843222,0.9703317743546538,0.8769164604858984,0.9479118639653854,1.168063159590951,1.282304053267244,1.4188984835951555,1.70573385894158,1.8652212053266626,1.94418460048871,1.9643983437958572,1.9813350821873734,2.048254747260962,2.1888881208175226,2.375512328086684,2.49387878565752,2.720407310822863,3.0130003759425823,3.0242148777073163
0.6790825145254409,0.9790279092906685,1.3126805231895953,1.487818269572327,1.4070318737760796,1.3152183134606465,1.27184298311908,1.2008900761519563,1.1450460711371204,1.2135268811317805,1.3955127827436942,1.510040945420591,1.5537837747140493,1.5828745859566966,1.5116433175548794,1.4525374113902096,1.4411934406292948,1.409575664282501,1.528481338881386,1.6617469685279922,1.9293848807677456,2.182550294885279,2.3247818535562144,2.5109269080091234,2.63906416122818,2.789471133377964,2.9782382906875884,3.015110603049944,2.8602769417913763,2.7863462479120957,2.9421874538480606,3.0164774195523854,2.75343223515108,2.490009994721958,2.431791102733463,2.613830264166548,2.821455790095684,2.952902204050375,2.962994599942812,2.9058862772915988,2.8688909910332048,2.870467382766922,2.820058230119233,2.6776502521567984,2.5132493702459153,2.413205528319951,2.4204515238974067,2.438537377677547,2.2806096672142653,2.1437622682003146,2.0974946543006148,2.1654060914451336,2.335437498347229,2.3499569235679814,2.309706293117993,2.100662036278846,1.8421780050238052,1.8418057739275238,2.0454545085505673,2.20580414520384,2.1292226927045954,2.1678067732450743,2.374668367145742,2.3719385384138008,2.253977684382362,2.0789988901111016,1.8172078090279726,1.6148267981027504,1.623958135677384,1.783397379660099,1.8557731852264927,1.8979169749906168,1.8640784388501013,1.7883360836989532,1.9385032397404867,2.117471200803289,2.198398865027644,2.1070146076348664,1.8997384639675814,1.813200363168885,1.9236945621939088,2.0828071683636664,2.187156140506336,2.158658842236028,2.161361886412142,2.0458752982526787,1.8936749554969656,1.8094684487365715,1.7018494797656754,1.6894772727940512,1.5798011354981503,1.4616512740525542,1.4748633902597932,1.3914526647153531,1.2574528103911704,1.0941429197299957,0.8628918691088862,0.5665460588428237,0.4156585729986625,0.4488041206152468,0.6263719932519003,0.7634904853741943,0.8522817209479197,1.0032795616364127,1.1497187080379803,1.306725382371958,1.4017928641427635,1.3378151998642833,1.215383613759282,1.1305039749239647,1.1241622210025868,1.0261092819156463,0.8133768133894325,0.8626012597710663,1.048661630489732,1.2176050617243284,1.4535157590460122,1.8040537311798674,1.9905857462050445,2.085776689487665,2.1051843270759227,2.116793931968156,2.1784936873039196,2.3045820611829155,2.441540619196454,2.5917250259146765,2.8113648169394687,3.037637713520618,3.060610078570608
0.8782339142272539,1.1476231412995117,1.348626696129678,1.440467226575228,1.5030743628654712,1.4317308220183276,1.319968705988931,1.2738071014022767,1.221207058689261,1.28062213162073,1.4317308220183276,1.555776224005488,1.6955319742181638,1.7672695666051643,1.5493733233556224,1.4317308220183276,1.432864495354689,1.402944538185235,1.5477083508275762,1.7189203658968273,1.9852277298094012,2.1572769014289683,2.219582804253301,2.481652409148627,2.7194216020535653,2.901416411231389,3.088125425950987,3.044040645099532,2.7880728929624508,2.6424679029935145,2.8154730605669633,2.986697323539341,2.8537483145601743,2.6253256016898394,2.6044757116503385,2.786825277012155,2.9728431512184574,3.1125507139738833,3.1454013221858856,3.109275946339957,3.0922215453915487,3.0567644844212705,2.9260309850298767,2.785274247098043,2.7129741945031967,2.7008819263477295,2.7137447608125247,2.7050688534740974,2.63766313719832,2.5577103720408827,2.538724637600475,2.5625041270948823,2.599334747100131,2.5610695141185693,2.436995935768408,2.0998188794931596,1.751041249607781,1.7524532689143115,1.9480862187429104,2.0921965083269503,1.9852277298094012,1.9837439932888605,2.1276046859363915,2.1053097366345144,2.0512576756232552,1.8992843636804515,1.6631768493599157,1.5133250536271037,1.5116823809428812,1.6106341181733985,1.7084792759138645,1.8265787539397809,1.8382899762202012,1.763573529868878,1.8525259057842423,2.013875517230341,2.144493013359957,2.1532295107040023,1.9800466522166154,1.9114066407450312,1.9852277298094012,2.082196072227369,2.0778257667736346,1.9266678295988826,1.8903983011910932,1.7560454304418849,1.6311845222382177,1.613394442946963,1.4773211670828943,1.495659216322867,1.4317308220183276,1.3150913806464264,1.3339965139869663,1.2893876713411283,1.2094289678064176,1.1074162445238187,0.9702642871712648,0.7920529666137934,0.6866618633854658,0.7296882522041199,0.8782339142272539,0.9668242965613238,1.0252514338320178,1.1520600988523313,1.2332512012455745,1.345787471353902,1.4904860237043318,1.525524181644445,1.411361754963687,1.1884980436603725,1.154982399051839,1.1659513860311737,1.0957362605821805,1.1498786112176875,1.2837959468410076,1.4603786674312327,1.6466476855097254,1.8091179607612442,1.9220584387356638,1.9758158222727191,1.9852277298094012,1.9945754943660419,2.0474494862917045,2.156918773978711,2.3109843741808636,2.4814290395618097,2.632500707888593,2.729461171131507,2.7341576852576535
1.1542754847239112,1.3242470593820717,1.3584508753152638,1.3638836245071262,1.438901350717933,1.4152295561697033,1.3505168321293428,1.3518676892428616,1.3090719692664232,1.333553238866741,1.4358561384804838,1.601760450500146,1.8776976741201035,1.9855156421281686,1.6909530214046025,1.5348327735948817,1.4951689599782754,1.4126501972577379,1.5759748410749514,1.860812988591975,2.136485034284077,2.258936847986666,2.299594350067031,2.5781730922537736,2.8755279317915514,3.059439228518191,3.1605728863900278,3.030238990302661,2.743070694680343,2.5148041116458226,2.616847145395755,2.8269079008717815,2.8684642320247717,2.773418400587776,2.79927656956028,3.0035793878306256,3.199167513735977,3.2616269947496392,3.2741473209335687,3.2705868926095505,3.2999629315356134,3.2162090482002927,2.964887519556824,2.8005230102067404,2.8228253902124716,2.8965066103881703,2.904872856095025,2.8767307624799097,2.925249036830775,2.913367271778032,2.889568977422259,2.862039217105372,2.810916407597226,2.711430587560677,2.465158411626353,2.058162546994756,1.7441051630942843,1.7425963513311011,1.8175907261104418,1.878676880056996,1.7628748426677974,1.760974500082194,1.913164500937382,1.8786959168862243,1.8748319740789832,1.777018526345286,1.5438886442916653,1.3851060858624402,1.4138954007422662,1.3965276266764897,1.4301174391428448,1.639298850846675,1.8541758931883874,1.8556850297065777,1.8101830334684779,1.879895260324387,2.0233111966402393,2.104812714560607,1.9978772243978231,1.8865689293275885,1.9413399940585299,2.0410614547818087,2.019494026286289,1.8347055314901786,1.6687942758991732,1.4533658150198572,1.3016384817981776,1.2925212169405202,1.2577401412498708,1.3796691921781055,1.372629369636613,1.3109003090275861,1.3716679710992787,1.3536240880376802,1.3132866088200676,1.2607097010351798,1.1780417365856464,1.0615325683651817,1.009569478472841,1.0808055099480964,1.2326329914281688,1.2703173768826705,1.1775627074855874,1.2113608580212862,1.3373096336407835,1.5206055969515093,1.6443909475005696,1.6222549039165919,1.5525680156835018,1.3057216728965502,1.2149494936373535,1.2849353729803525,1.3947047922859241,1.4661826889188798,1.5975169850734867,1.7710292398583265,1.8986624887708223,1.927996011853867,1.9756795285887245,1.9850994938522861,1.9792210611972976,1.930789345654229,1.9041125814265187,2.0183027939910425,2.1823528593054604,2.3473812761418116,2.469999116975671,2.4943605983719257,2.454447558484124
1.1748728700130968,1.307689626381736,1.4083618847110446,1.3805616189377325,1.3432019884903732,1.3492278331124226,1.3613718146366462,1.3719866021548577,1.3745260625945173,1.4618797160032928,1.5233369102777692,1.6740566988220518,1.9887594477610695,2.0627442524936157,1.874015485865193,1.8123645674966942,1.7437114517739587,1.6204032436530114,1.7886243733581508,2.0330064519541207,2.213994605664686,2.331313728337488,2.4752868398600585,2.777526582357174,3.0313012175374507,3.1207871195359775,3.112659831656283,3.00445294787079,2.7623259448476305,2.4372592656856282,2.411907374304734,2.5498187016511316,2.6170770719408116,2.6717872799030933,2.703826742894399,2.8940913610064807,3.122987040883408,3.118474616452738,3.088616455521786,3.1579616087002176,3.2804636511772447,3.2541268242532606,3.111982485498529,2.9771956106113233,2.8169001268554914,2.819133266000795,2.816949675190867,2.7706367038418365,2.949043928991235,3.0115775778627194,2.9747561747138636,2.9372327440267116,2.9125461055456867,2.8138463163426155,2.449096523837868,2.0139527335324856,1.7650191381218614,1.6311851098901353,1.5073882846641562,1.5705701754589445,1.5397379660099038,1.545995314558473,1.7058917208040996,1.6813791200778545,1.6642392930980436,1.5859746044677319,1.3529124724944108,1.1839755363599571,1.24951839605667,1.2965335186601907,1.3658427322844984,1.5474528150305278,1.7223127257723874,1.790771174065127,1.7953367964588713,1.84580915261676,1.9173584798867627,1.9610214368460537,1.9368039321026975,1.8515791057577053,1.9404521022706096,2.0161163151812294,1.956969385500122,1.8682412181220098,1.5838351803387751,1.2753200267288836,1.1032520193189022,1.0912363933451203,1.1844001303350096,1.3226210574548827,1.3300645040766805,1.282509917012724,1.256160161746551,1.224364914520616,1.1900655278281793,1.1496619841633995,1.0983235373305107,1.066787289955034,1.106215455152648,1.2122264383669896,1.332437875526973,1.39114065247611,1.3585980357270715,1.3654837078918405,1.4260836726636545,1.6256758422327804,1.7357888214068604,1.630357232054309,1.5650538869076256,1.458519213047481,1.3685703650540106,1.3484998870316511,1.4142001137261107,1.481137626068734,1.606760935312978,1.774655547055222,1.9476281788682535,2.089290097926006,2.1776929033144032,2.1909517069200497,2.1616382993167926,2.054493843804904,2.010051467096209,2.1610111510044288,2.249855522683132,2.3731756384876745,2.4741733322631885,2.38992402743221,2.303248276904058
1.160006328083282,1.2928418274551903,1.4583463815255846,1.4827267605703502,1.5247459758601871,1.6010971461303198,1.6070187598596006,1.5346697775103446,1.5580021876115862,1.7539838856565455,1.8734104440901007,1.9478140160549597,2.076696802384877,2.087794291827633,1.9734728608426342,1.972578562875585,1.9383154501576068,1.8391346794583026,1.94487944862167,2.012396260105873,2.1283456067529247,2.2874892772855677,2.474887143768887,2.7664755715417497,3.093873527719309,3.210179739524834,3.1811998398493877,3.0712271548383936,2.8162147391451797,2.4431949212028368,2.34924224604893,2.3705580822010597,2.321433505716384,2.400051775226853,2.4323136490044788,2.5647824845087994,2.7803969836136355,2.8413470652121973,2.850997546862534,3.02957723238525,3.238280140782842,3.2910351998859335,3.2646499999304095,3.1778967412072197,2.8330483066887315,2.700797118897293,2.720422527914626,2.7807190168645275,2.9887916531158774,3.094248264068503,3.0808298820381563,2.976712993741662,2.793574923222504,2.6733662078187708,2.435862355219192,2.095756983044541,1.8258664270284004,1.5779991163570901,1.393170958922667,1.4451297187482457,1.4411301597964745,1.431115705105752,1.5285658988994362,1.5089934404127914,1.4821794092025982,1.4084828172898947,1.2249626493080477,1.1001475470249116,1.132907285693011,1.241296403431083,1.3931318027475201,1.561581575442212,1.6383477516824243,1.6967591151384855,1.7691700793005334,1.8397817770068197,1.872758660790766,1.8767678386765585,1.8554884601401116,1.8014047819092285,1.9018344405159398,1.9127679673413993,1.760052938159069,1.7348302528774453,1.5941519355475748,1.3161298543721225,1.1131437475459733,1.1049883760904229,1.2105782293831218,1.237195892065663,1.1650473299493862,1.0965199408079873,1.0697523340992912,1.0560471779331138,1.0187304151466972,0.9640197741777397,0.9139958118975698,0.939324599279384,1.0585496472310074,1.198202960435716,1.2718038888020298,1.3553314952199929,1.5137333479937023,1.6385975346764892,1.6283720201601724,1.717719205377077,1.8087933913283918,1.7542502311559747,1.6762986527461206,1.6097098963521197,1.5359022072979254,1.4263633331183765,1.3215595106591553,1.3646530773707155,1.4815241773143781,1.6413602409867727,1.8437888981109,2.0889952590408316,2.2606498223976725,2.302869055842861,2.2458374063023814,2.173026096539148,2.255855355975562,2.4160872496080903,2.3625858725695372,2.371459942320418,2.404243558213804,2.2502498371198993,2.1432749655798355
1.1893613352565016,1.2870740548121502,1.4365980644910865,1.5440879510789056,1.7655721031118798,1.9540260032880672,2.008947908987564,1.9458405340023905,1.9132857969325499,1.9119192510592813,2.0698551499881,2.201048247304959,2.2173598716939362,2.209804724814205,2.131180408674794,2.07356908691109,1.981446393899137,1.873366439786633,1.9620129216151212,1.9837866753755133,2.094350801595877,2.341050440174483,2.589298827649889,2.758118851981771,2.9755452984521713,3.11748946440631,3.1548244134731265,3.006246770814051,2.678382837594815,2.3272880961980005,2.197013320986457,2.1278932539570237,2.080978882728338,2.136647937581469,2.2284340638310605,2.2983329088321454,2.375074620195153,2.364492122603366,2.4083240275559263,2.734328846610942,3.0391567009406915,3.1407053029245118,3.2006100445486547,3.214785445965174,2.862002225963606,2.685387772169826,2.7394007775253453,2.8356750489026914,2.9631506060624337,3.044328161532522,3.124926539644158,3.0965413437094105,2.7982636432284793,2.5467535092484814,2.3091422709932075,2.1202213344554393,1.8558437498501874,1.5603669607864514,1.4675829397225324,1.5395585156716713,1.5619663328030549,1.535926764962275,1.5617981406384034,1.6111862944726851,1.5054104029544664,1.2700680887533784,1.0708299021420375,0.9711022788058851,0.9238084854771881,0.9979438059400165,1.261754174996246,1.5268261090035542,1.6783433102710885,1.7850005868786916,1.7092092633118237,1.726349755266173,1.7791312587055605,1.711898977068121,1.6698903704418508,1.6884361700992498,1.8231107261475565,1.833046590126551,1.6491531239962558,1.6220690203363133,1.5906075903286723,1.3171438322915656,1.0895724105466198,1.0973435813641967,1.125647372043821,1.2014934400261783,1.117769743441998,1.003477631261721,1.0624807911279406,1.1113543783856676,1.0311263446983667,0.9870812148868314,0.944411561711261,0.9058070370698562,1.0394326499096176,1.245937925709354,1.3164972914659179,1.334666808321708,1.472033444198507,1.6987129959066951,1.7870722609273488,1.807903469821677,1.7721748518073313,1.7231120870256817,1.7184240165297207,1.711097388923349,1.6918522834839036,1.5782845914728922,1.343314817658569,1.359010752947577,1.4644009283044557,1.6140263543327653,1.8584068555472717,2.213700887957512,2.424830489484665,2.470397019182041,2.389856107242145,2.332684194467628,2.4367087904839977,2.5804266445709545,2.584409068829968,2.5574896004941223,2.5028575502368935,2.345077556908289,2.2331657597496477
1.3171396877990935,1.425708255875398,1.610981420456751,1.7549846878014133,1.9359174475864749,2.1236610621684697,2.240638496180185,2.2188702763031065,2.123189796259534,2.053722566127465,2.2522467401942934,2.407357896874202,2.370479491489331,2.349402303873879,2.18425154718698,2.0327938688728975,1.9202554569279753,1.8590618709321536,1.9860670782143826,2.1378019931606596,2.3095423073039103,2.516375431015619,2.6272474090349625,2.671053766593628,2.7257242616578927,2.813688887486772,2.892808795231607,2.790943665367492,2.4600056321796955,2.2089272986430033,2.0998188794931596,2.0120369902138946,2.0053580942015303,2.010717933961224,1.9846726069745892,1.965302229767879,2.025169978317191,2.0622508027247872,2.1181024781436015,2.3743171987313523,2.653315771819709,2.8104730087608076,2.985506926328399,3.092443368525951,2.9042151808119896,2.8036110901051323,2.801719964375922,2.742027705313595,2.8251777299099206,2.9000381509810773,3.0349258545657385,3.1556500953465236,3.011901033849833,2.719226130468314,2.4270873202809655,2.293415252010659,2.0619844804221446,1.7924813339327383,1.7518548846168656,1.7031602837616466,1.6609131523148923,1.6214944204770094,1.5902257712274177,1.6159305630494063,1.5391691189535837,1.2496480506271406,1.0013567027036472,0.8861020166822008,0.8167118308094456,0.8599684554636395,1.1647118734915323,1.4437566545780482,1.5843304471891912,1.7538798867316394,1.7079905660216879,1.7499962034593213,1.8227843628299027,1.7269313141613443,1.663135961158064,1.580505235282683,1.6609131523148923,1.76245488804999,1.7323526505343845,1.6779019836809062,1.5612204478742697,1.245849592347411,1.0320902175595652,1.0537046118149274,1.034125163363367,1.1297882148882232,1.0501206774142016,0.934091775455728,1.078073423395629,1.2125164909819401,1.2063455272652706,1.2024302808991632,1.1814618088884827,1.1351713538866137,1.2220569270784283,1.3058333886190072,1.3171396877990935,1.34486621872126,1.510956197817863,1.7553337530405189,1.9354842708005195,1.969567304933972,1.8698146947929246,1.818083719675808,1.8948570946520118,1.8164906571850576,1.7560454304418849,1.7333266526589006,1.6236181326494301,1.6353237567721084,1.727005605735359,1.8647055948947275,2.0439205476049858,2.2617595875796983,2.4052344321341677,2.405516721557995,2.3095423073039103,2.2375663447416674,2.306989671089675,2.469956527676163,2.5950229284767303,2.602299543812002,2.5206864454837636,2.3763346077647687,2.274472694521677
1.400026753626779,1.5435713122561148,1.8074594524042928,1.9910661187856389,2.1181440313199915,2.287772278077506,2.4169885220755307,2.356709786399353,2.2035649748941184,2.243639959278815,2.4617491954194697,2.5244127153647624,2.4050167534922373,2.36110331956836,2.1080895389762455,1.903060189629088,1.8247925859359742,1.8306766054070471,1.9720866257305247,2.24122726154361,2.4410968801405044,2.5903692201534296,2.613381236243339,2.555521028427971,2.500008366307565,2.4930873731696384,2.5507863478562225,2.564081199267662,2.3096248878628693,2.201210748524723,2.1118677078002905,1.9514760231058548,1.8596213696836252,1.8042924725036895,1.6521499013440681,1.5841965553391038,1.7341036986038474,1.9341026895436466,1.993532537861408,2.1406405684264214,2.3380130529862537,2.5102134985810527,2.789276094799389,2.9665117275992117,2.882926222002832,2.846650840272652,2.8615958801270502,2.754933902304106,2.79489782047636,2.8207208540499966,2.9255526363688804,3.070908461924718,3.0705949650911566,2.8706144194625365,2.683797214931988,2.5275708804866004,2.2844257550515255,2.100159261401955,2.065470725423817,1.8627899656270022,1.738075606986439,1.7145448334339302,1.611174696079573,1.4646890633184115,1.4054819573077069,1.2203218074688393,1.0030943584951966,0.8491409379512258,0.7633372010108231,0.7850270002859391,1.0550336948784433,1.2858552647348693,1.3834658565730336,1.5819355491212825,1.753848029811891,1.8822141966496726,1.9002671883159954,1.7920908237689117,1.759069750107208,1.6314309958241144,1.6350632104692353,1.7191430859736303,1.7235408873513027,1.6628870751063998,1.5398676515094225,1.3178431999317086,1.132617913517123,1.0390705944702263,1.00019822427055,1.0711670906265962,1.0173074933506412,0.954182666649965,1.1034842964716296,1.270469671516496,1.3378872645468207,1.3319015658294637,1.289161703714254,1.2638096576881186,1.2965350651126057,1.2545822235604192,1.2201800905695321,1.3532020302445884,1.6720022986468697,1.8829434030891623,2.0147561696878933,2.0226870639100842,1.9437914149622055,1.9709888039938062,2.0779788887595023,1.9548480142700444,1.8266002496283489,1.8349507988431917,1.8408045078469315,1.8162378431442594,1.945952087347344,2.0860683272163407,2.144937927719742,2.1703430015991865,2.2363557044686133,2.235546863462015,2.1199447050474505,2.03060651631747,2.1834364121190526,2.42555528080251,2.5219460619047993,2.496319922652636,2.4251801423756882,2.3195970006864703,2.263622753449246
1.4538700822233284,1.5977475611285576,1.8929765234605336,2.163879356298461,2.4158663852741853,2.6255547240796404,2.7415382840533074,2.653674486921884,2.444516086429988,2.3664117339860598,2.419182752478074,2.382481292178523,2.2988279591792233,2.275550850216341,2.0861130738169678,1.8989052508709234,1.8298096023251222,1.8185466811352755,1.9168100691991061,2.179984467431944,2.3173794497815097,2.457486028189044,2.562000849620957,2.437211016370281,2.4016964273701666,2.3512328705265193,2.314492408697063,2.3397776479788717,2.1477223462219315,2.097293352589759,1.9691164338327911,1.769278129930767,1.6886853035833003,1.6025887304136002,1.5055332222052629,1.4951187312038374,1.6296122440679246,1.7462141530397146,1.7782699311039984,2.008388769786279,2.1941753643016617,2.3005786670291553,2.5802176879206447,2.792658124372817,2.742094573916018,2.765217934579805,2.917610489772305,2.8927215753154027,2.8222815956852743,2.825398315882391,2.9125435075056294,2.966450611799772,2.9876735061617623,2.932704916929989,2.8572569057992427,2.5754441604642326,2.2252487120757674,2.1014353707379967,2.097549081693359,2.006401392858761,1.949768391687942,2.00788566628825,1.8793506539096714,1.4977828975662395,1.1797323183656843,1.046109922146946,0.9153283590144954,0.685151536098916,0.5562891204134348,0.6354398953484722,0.8769690398680072,1.1138025362747477,1.3336631607043967,1.5167463321628234,1.685479878875661,1.7719472140118486,1.7119222666414904,1.6439890554469687,1.698217543481989,1.6856449472064343,1.6454952073119982,1.640394574240773,1.617712911315748,1.5849815655139874,1.4807546935217408,1.4283885053429157,1.3372744982419156,1.126619905038543,1.0517408646803104,1.0736937464402598,1.0722805982234664,1.1246867158036458,1.2558947286540467,1.363607737396297,1.4396098114982758,1.4141341729951367,1.3094397775087983,1.2526782313471163,1.2497521578037158,1.264175053464726,1.2899288059701723,1.446383273075815,1.7114411652951953,1.88160684292822,2.0800126979207794,2.105868191530606,2.048894920568791,2.148288626167243,2.2097428203240344,2.1603190207615874,2.006568508305919,1.902991047741615,1.7962874007583494,1.6680827222140002,1.8322094490407588,1.9732576110975282,2.0406486718370758,2.1853496985113696,2.253329628033347,2.265199516331543,2.094466275197702,1.9279965608444745,2.1348342891182486,2.4729917498310114,2.591190448243872,2.5461315879452795,2.454774942460372,2.3590817041843755,2.35961628185518
1.6106557994362563,1.770376435900398,2.1000227947085968,2.414863943889758,2.6953771124733295,2.8828480333687314,2.9717445514228675,2.9140510511778324,2.7287115747169257,2.489591957705145,2.373613129875868,2.267446975626209,2.1942846366293027,2.1870742249219157,2.1161833770902043,1.9845352902760773,1.910323211647632,1.8955449798829738,1.9800680014754704,2.140999345386693,2.193837696416854,2.2699682497854683,2.32017531203157,2.2262669272748274,2.3625789444627183,2.3884340514594413,2.2839436330466367,2.180679984405574,1.9530748152028026,1.8421122962606935,1.71256259072843,1.6041456987049854,1.6369604292209607,1.5442406477903592,1.4771693673138415,1.5140775264431765,1.6076909099372403,1.5855303396179612,1.5873665044283438,1.8570253864081987,2.0645069144207153,2.147037376053772,2.3619994887428315,2.5429715670805435,2.533978327706566,2.6426800762648472,2.862169428398712,2.837672013835182,2.731493951901928,2.8029122791878587,2.939491677998297,3.0000705491591706,3.0624983588273746,3.0572263169704748,2.9433842224429525,2.603120029605285,2.1772460404245755,1.9486404131625987,1.9447631283371476,2.024098279061359,2.0848047364125986,2.1974113778380686,2.1271052281999308,1.7443048410301043,1.245754516452939,0.9977443135784863,0.8300749117014332,0.5869123422831174,0.49124520812388567,0.6977631648334246,0.9649436248504387,1.178783415163863,1.408234395173955,1.5789601746748931,1.6246877209977155,1.644039624440938,1.612800481503424,1.6058010832280585,1.6547939638250757,1.5872515411558155,1.5148359994946194,1.560138611622858,1.6606270276890758,1.6619330067535123,1.5016828649824872,1.4481315066018827,1.4490123040393492,1.3294140043328504,1.2086568550446748,1.1022181230923542,1.083125559719121,1.1957346986652415,1.351156692280558,1.4132291890419,1.507847859392835,1.532088346352143,1.4664286057819071,1.4204546477312847,1.404789332200093,1.4335845235990958,1.5052345713148851,1.6250832725964148,1.7484124660766331,1.923493693489729,2.2681454772529994,2.3973026158397244,2.3739669581884115,2.466961358638862,2.465073666034013,2.35099898506328,2.133820806063578,1.9111055309953138,1.6489319194428194,1.4779412635722464,1.5824327645017415,1.705780036010691,1.87845198721455,2.2183216877734226,2.322854942918122,2.2705997281645947,2.0694293575124263,1.876797051162677,2.019854137061768,2.3538840776176837,2.574301765136251,2.590979945141147,2.4841619921276292,2.3449475311892387,2.347189516042356
1.8206262111622007,2.0414099285028655,2.2824920709518555,2.4871323251391457,2.7469748065890625,2.9254923247246967,2.9828970095167135,2.988063521460816,2.9096872098951923,2.746583182979497,2.5291433751602317,2.3274099566482995,2.1704690684000543,2.0344973171370277,1.9880460588718196,1.988834939285505,1.9198982573491672,1.8583823056151842,1.97779135579107,2.1033392624318923,2.0902984003650866,2.143876210814249,2.2065735671383813,2.1593135947239994,2.3526584212916806,2.4747853562709343,2.3403232982489675,2.0467394635944225,1.7603007416940428,1.5585185790019906,1.5202258810255391,1.5088301659668197,1.4346751437002245,1.333428904092578,1.355955952705155,1.457463419054737,1.5479186992850595,1.550574329230131,1.620378098336744,1.8445124831958615,1.9970117793667062,2.0738333215029723,2.1784337313437914,2.23465295210807,2.2649315779861263,2.4182877895364863,2.671915944744018,2.831112271981391,2.8395734080084276,2.915330214757393,2.964939975222739,2.981374434327037,3.06541051429904,3.063226304908146,2.9604968937183567,2.667730502211968,2.2753476154399666,1.9613377424238136,1.8591811410746577,1.8484151105102629,1.9811141828166559,2.1399974607251346,2.160844876440772,2.001382932469671,1.618214549550114,1.2747553860231322,0.969277526814325,0.7320652114240151,0.7743145388331986,0.9371880206228709,1.0958776063329083,1.3189980905952032,1.5951594183668751,1.7569637912085108,1.8029797199776754,1.8247620589653026,1.8400790979481205,1.7936211930787593,1.7047826979192329,1.596401250585139,1.5689589576168426,1.6053989437420715,1.676056849446517,1.6634359729265669,1.6111140751449065,1.555862825340726,1.5136897689646485,1.3756137135070092,1.2272424913162832,1.2312105644968856,1.3165786967210416,1.3586053349824703,1.4345425199411173,1.5446145799842974,1.532286787126031,1.552556664722776,1.6218530427920395,1.6465248044008325,1.6408459837007008,1.6492725410517393,1.794979349447677,1.9415263686374502,1.930859825223041,2.0367948312302353,2.2768482619343984,2.5007814378698052,2.5433372102895375,2.537829117936018,2.5274432672333176,2.4076363820250886,2.1360670591253603,1.7955941725342937,1.493041567249107,1.4435611829927968,1.4987026346755148,1.5390470419999465,1.7352257735470964,2.109999933502546,2.2236651757318935,2.0995104472912574,1.992157114868011,1.9286509963097005,2.0490635109449395,2.326989692740009,2.4063265059005663,2.423451579724339,2.405748813136433,2.2631711274859803,2.2208233993096327
1.9852277298094012,2.258261326642762,2.465450505558491,2.534283906703763,2.6519036751905576,2.7581774934573464,2.7775961727158474,2.8096828952929545,2.8049343585075683,2.7645319901466237,2.538724637600475,2.345009946008707,2.243821404540663,2.0268998515869616,1.8732088098919757,1.8803660159040259,1.808427253254625,1.718048166734788,1.8586768197453518,2.0061814757269603,1.9852277298094012,2.052576613958929,2.161939393601986,2.1361949043465054,2.2387206322887203,2.366837874413527,2.324207068122621,2.0968034751260087,1.7648919424107306,1.4538611746574182,1.4317308220183276,1.4643937527652502,1.3361219581860917,1.2200454873513338,1.1527594664924743,1.2122779661614562,1.3315876978473227,1.43017626619271,1.576135919558494,1.8373997763520518,1.9852277298094012,2.0927882351467497,2.203367369204534,2.1865020065993312,2.2154824629976466,2.376567317924172,2.5958984061178896,2.7895000211090752,2.921054006293752,3.063057432304432,3.0922215453915487,3.1229145431941943,3.2612636402902195,3.219009116800922,2.9895275170330136,2.653315771819709,2.283638270552778,1.9504607732293004,1.795143381655332,1.7915176311813057,1.9852277298094012,2.1286628614658545,2.140224557262272,2.122219706659627,1.8421152190557577,1.489026420056993,1.1809571086783353,1.0377322945503171,1.1701972020655036,1.3201390631869632,1.4317308220183276,1.5995326930092464,1.772117880500364,1.9247372074749942,2.0347239072109993,2.090089443714777,2.1461933377902094,2.113660548746268,1.9673207831760824,1.9386097593828293,1.9852277298094012,1.9742634633760634,1.9168776646341643,1.8087769061456482,1.6717984762185774,1.5365925745850133,1.4829625327055356,1.4210017825956986,1.3028234354966193,1.3273181283038988,1.4317308220183276,1.4513399004981586,1.5371871855385668,1.7098240090758199,1.7087362344471348,1.7657748584880055,1.8544785339259957,1.8011608908988646,1.804194334633436,1.8076255104646115,1.9852277298094012,2.230161683146437,2.303935675002509,2.3198102255454454,2.3823632360011646,2.586290730270399,2.6390976883165367,2.5835017342690607,2.579851549846878,2.3474614751640517,1.9852277298094012,1.6058751582987354,1.3364764669376978,1.387853080216188,1.5890295593553954,1.6609131523148923,1.8164341343492907,2.1073336021067632,2.1837779615994215,2.0326915207859444,1.9852277298094012,1.9363467118478204,1.9453756742725836,2.1918553918532577,2.2641900849821996,2.3095423073039103,2.3510313677768493,2.2527366563193536,2.2070514673281774
2.2760255183205897,2.5502961842987757,2.7275373843272925,2.6852749430016303,2.657948139099683,2.6778764053579627,2.621816824876481,2.6221248781975417,2.684350350031772,2.7049305387701033,2.4762370420819084,2.303716944772937,2.2623678382435517,2.0555872552526417,1.8904696699700436,1.817169905479282,1.7219284014182206,1.6905715115938311,1.7802782469972147,1.8246891437339372,1.8017993747074306,1.8766232221789731,2.0250447002070544,2.1035252078702675,2.1746677640293,2.2665268055102574,2.3255794518537556,2.2290134731573747,1.85245930007873,1.4696618357039675,1.3902985163490176,1.4207840420956719,1.3153015744586682,1.153875510271305,1.006154911540602,1.0126652287752111,1.138919768966195,1.3362261890788603,1.5434397400846498,1.819152983269086,1.9597804455112904,2.080508645210258,2.21137551839018,2.168850443050885,2.1836821588723145,2.351411856929027,2.5807069854647393,2.8073867846053138,3.004543446266114,3.1455662358714176,3.236431820856478,3.342217949889684,3.456948017393878,3.361116093265308,3.065869625091995,2.6929373672853867,2.302233278326021,1.9114234738795681,1.709982025583581,1.8202375722057964,2.0249951866668585,2.1386232057865775,2.2224600099003884,2.2505869637463616,1.9566958393316356,1.5969313126148919,1.3527792301543375,1.3100844007334516,1.440409141822522,1.6453901413349257,1.8024005735482718,1.958299299781811,2.0943037430488896,2.2216823763035243,2.2639498899931074,2.2512407419693115,2.2854821057671386,2.3191827060845016,2.219226656262135,2.22417661847457,2.3046038661619663,2.2864597111257816,2.1409119862897716,1.9582960019720361,1.707992236190296,1.4947876975998904,1.433513139355621,1.4955011070279614,1.5052776245501176,1.4420224628399083,1.423251004846118,1.461176760593547,1.6409836179656325,1.824317670399339,1.8557484806491635,1.962133140892795,2.0835719741377483,2.039751346689424,2.0618595347992774,2.072237065587985,2.2503787184641624,2.4979605540196705,2.5474562790839372,2.4959217420848314,2.561784222566669,2.765645992608267,2.7594754618982735,2.6175504719540803,2.5863919919745304,2.293475130648166,1.9282042726005901,1.5366348236649903,1.2082835414317026,1.2904831782318884,1.593622894176416,1.6937731629575778,1.8372623276614097,2.154416057248431,2.231299083433118,2.0155128275908143,1.8914126966526883,1.8225815610602045,1.7938574910077658,1.9847222295819664,2.149694196767203,2.2701244105503315,2.312831054867668,2.209263234501106,2.168811410591931
2.535394816260576,2.744891920760397,2.8076417018213964,2.6825946935341123,2.6283649992662084,2.6181406600537267,2.4827819998506127,2.448664197600741,2.5691969257144573,2.606601155849464,2.3638726446949803,2.1765922312725774,2.1030130150981696,1.9519468598742455,1.925897897335045,1.7838250046818847,1.6281100820501258,1.6568440957915926,1.6449398143916882,1.5976720633216592,1.6190518607456714,1.6651457616455985,1.8323348972606606,2.1357753827353743,2.3234623275686226,2.3912273156694446,2.407804976267368,2.2067012577142844,1.8072008237024144,1.4931046625076376,1.3901786353578096,1.3800111437361022,1.233778727093367,0.9811312701493085,0.9324968262930314,0.9746904814152761,1.0869235849921741,1.3999076767908267,1.6821045299766655,1.9406978760867888,2.0446335085618563,2.1216716903173367,2.197429595047517,2.157357347883595,2.194444833634969,2.381267543536115,2.6686612809914863,2.9926406494605278,3.1815224916812457,3.1933085622585504,3.345643280130731,3.498383292251825,3.4348415419800746,3.2870443629257826,3.0763765939478347,2.7637784348138603,2.418470363708597,2.012962050985608,1.7016477605126676,1.7526835666079479,1.8352078346990828,1.9098815061766083,2.1546387773252342,2.2417176261398706,2.136517741752653,1.8734279653959622,1.6651569270320346,1.6524396446685357,1.7167861997060812,1.8778982103370137,2.0599720741622907,2.2685644421412614,2.4618187239200466,2.535666744453223,2.536998796705376,2.4337535508480515,2.3461411759502524,2.3775805844755045,2.3581944425758143,2.3149267143932812,2.402626432923477,2.390874631731688,2.1587172053501686,1.979932118084632,1.767923437615259,1.5442618341884442,1.3677545186179725,1.3655618346678444,1.5465975340579081,1.6357493404767063,1.5658808987300996,1.5385394963173555,1.6680368544353725,1.784077401180531,1.754829826056579,1.8912459349565207,2.1218086286786817,2.2066549723935047,2.252301917616459,2.255953988710588,2.429973588139205,2.633760262451532,2.5936014294168963,2.5294942961422353,2.5985721604852645,2.803060181896826,2.780595053238944,2.573923069868875,2.454660566839761,2.1455511270313234,1.8678331866523217,1.5589609881088635,1.264444259901123,1.3737171442652982,1.5697614736330636,1.5608827026668417,1.601133023826347,1.8725974508587682,2.025565750285359,1.8806522797105598,1.6921665535436725,1.6913606662611869,1.803345332257621,1.9027548425997536,2.0102308304464933,2.1629650936307345,2.2457868682374604,2.1629478197572594,2.1036008603224077
2.450431174130078,2.599207814285911,2.629590470017922,2.512364242741687,2.469882730966921,2.436659922587685,2.29838793160907,2.2724123868982695,2.3333387149877374,2.294371145177396,2.0493980665942617,1.927051995441677,1.948596907590035,1.83625674697858,1.8203661906531488,1.6874748024909636,1.5269330616525731,1.5137434927215443,1.4844555397250376,1.520446930933734,1.5669254964073591,1.5567853151353,1.6969295341946145,2.075288131147825,2.392415393201764,2.496402317637305,2.417702797516954,2.073004121450331,1.715190137097646,1.4753403471136162,1.4052955788626553,1.4180828227334072,1.2821755121425125,0.9951885844594213,0.9659168382842234,1.0365069475147968,1.1424065242971644,1.4304165848979953,1.7253573503579187,2.066037809524384,2.1932492558084364,2.2461870591934043,2.323807743180029,2.3288079496314262,2.433431703171449,2.656864818253953,2.895080162680608,3.083336495828522,3.226276577137897,3.3039953371366786,3.4901546808099018,3.6006396745769256,3.4648502655181472,3.2956123278856455,3.036373334026144,2.7246326518272186,2.433782562295356,2.0689091077232464,1.6989580158273219,1.6557819304148993,1.6901566911980412,1.7279788964917644,1.9271122954874673,2.048884315771356,2.154741600946305,2.0528363097129736,1.9222608500261273,1.9298491296488487,1.9645353962080678,2.107819327345779,2.3043565265627173,2.467960212253687,2.5281230258568392,2.5400772267406984,2.587723611220007,2.499436117055932,2.3778037375589838,2.4044885162763343,2.4309119445355565,2.4442008884987705,2.5556175270586645,2.546211694180375,2.3014259992363617,2.121805257412417,1.8236351436259948,1.5604773156307832,1.3578334696531138,1.2806622775254226,1.406779554600054,1.5908035567786962,1.5964607580740666,1.5490382999044447,1.568053757160268,1.6105718889282203,1.6189806311474384,1.8415909407580369,2.08626133220999,2.0970697742318656,2.1390322888439077,2.1373763939915373,2.3121366049462044,2.563384305951383,2.638886381058556,2.6191713396592515,2.618200600549331,2.7767577480745507,2.8131302470163906,2.674419403771457,2.461579827950983,1.9725311989042458,1.6427727087645037,1.4581527038251345,1.382169063435942,1.5057403849707713,1.5826273391445922,1.4626619116347812,1.360972953629779,1.4778442391477316,1.6822672167707198,1.726611631518123,1.6249984651459781,1.6194814961555966,1.7050675235250208,1.8149750101022004,1.9448158507661049,2.117890861595138,2.2365939663921868,2.207358206164685,2.159128577157073
2.2885616801772484,2.323335147322016,2.409798291572159,2.4240368191762576,2.4292903963913224,2.3628679145609786,2.2740715447652353,2.2676833354133117,2.2109973179875766,2.1541240251743896,1.9698537823442455,1.8470819757414196,1.8733729967448722,1.7821616868579226,1.6279158476268063,1.5464766633371547,1.5619658688673304,1.5643384670914153,1.5126712754041538,1.5622948611540897,1.5533407470262106,1.5349395715986591,1.6932490083760503,1.9360089782387855,2.2706738341643193,2.433469807758954,2.3044065079047686,1.9332828145990675,1.666788867336497,1.5188549818887225,1.5518885663504636,1.570171407239222,1.3525316121936535,1.1138081035034415,1.1260563777785304,1.2509964334167953,1.3980597898711387,1.6120470189578056,1.82228758045612,2.051105937712299,2.129898384158265,2.2110773159710027,2.316930329071156,2.322492763762537,2.5267367240539693,2.8295470147050614,3.073515904412539,3.191906362924855,3.262352342790354,3.3553301343418678,3.50381072164738,3.5385045774218256,3.412311338604571,3.271075324140292,3.1406424550983676,2.9091666121542192,2.5349405303991563,2.0823230746319483,1.7716046902664584,1.623163692142769,1.6068661559352921,1.701664554985894,1.8784343963183299,1.9471425077550721,2.0245321749476872,1.9686644647503957,1.9337571811450955,1.9585203554892023,1.9121470435000054,2.068375086775311,2.306733949718337,2.4670198763982443,2.467799721422062,2.400528330003048,2.380252019164257,2.341846213658175,2.2567585769730454,2.261931522159194,2.341366349473812,2.5213767818418034,2.6516556242231974,2.6420939707995763,2.4000049177186797,2.1570633208859378,1.920324962231766,1.7510839780880065,1.5275858192169292,1.3350725355772977,1.2820682502030105,1.2704858164797084,1.3403017097732546,1.4522161822945736,1.4581699622340856,1.4209676369263764,1.4451331828016554,1.7434222187787882,2.0371108603796264,2.0142156053131774,2.00376463929848,2.035839610770299,2.2598330480901856,2.421214914667529,2.4469295109978284,2.5657033041347654,2.69216568753032,2.7896432844607975,2.7870917616923014,2.677363601737161,2.463981344835228,1.975932008209188,1.5418280892358716,1.3439641420985637,1.4473907558951153,1.528969677624983,1.3559873147601305,1.2034300314563886,1.1682149593600037,1.268894207654228,1.4997569750029884,1.4973977999858654,1.4369733575631498,1.4927203072244226,1.5430174348591716,1.6508742946050616,1.8625661089076742,2.0888320000593836,2.14756879896165,2.0389699126857503,2.05230367283995
2.3095423073039103,2.2853894732674824,2.406134560226821,2.4956407516810324,2.533472266618294,2.4618519107888717,2.3361514644981694,2.2106511755435356,2.120857251152996,2.1127501986031514,1.9852277298094012,1.8422991231769452,1.807231087776175,1.688425221216152,1.5063531512756763,1.4848204715659208,1.5824684566234788,1.5936245024869276,1.5803332388450908,1.6810107551126103,1.6609131523148923,1.6500950063041133,1.7983398369389645,1.8846562537839757,2.0633277289897816,2.1808975238667867,2.1222817348659913,1.9456338390387375,1.752306758012518,1.5977828821017155,1.6609131523148923,1.7161720415940027,1.522494588576387,1.328762638575668,1.2354998049150279,1.3030860849747765,1.4561103969078375,1.6084965807163878,1.7224974340488304,1.8715252490059018,1.937661590745905,2.0516410566414485,2.182696357315872,2.182734044361225,2.366096628841987,2.6728928696635985,3.0267865662153035,3.3468377599760486,3.4519050979267796,3.5340629186536647,3.6457183913245257,3.6515822914496803,3.545567534891446,3.419282498658839,3.2813556449301955,3.0488612465674554,2.6752741589502556,2.2736075781116982,2.0046229319871776,1.8054988754971264,1.7560454304418849,1.8117446875106802,1.8400352560221562,1.8253959652747203,1.8547715248005348,1.8133409975515018,1.8237845309292802,1.8553147471403388,1.7561161806398695,1.8355209449195404,2.0327938688728975,2.2692247773224508,2.4476419306963537,2.3890705403443917,2.3053535553636926,2.276029786529255,2.2282978059087784,2.2461217370433966,2.3595255669565183,2.5033324657735285,2.586290730270399,2.658687900076905,2.5721570830690834,2.3365213140577317,2.2142701525559843,2.137655575046011,1.8982087673645343,1.6097496401791844,1.401718386994459,1.1704813163031809,1.2025485535798595,1.3240543095530706,1.2421526432041998,1.1951256438461324,1.22166790150892,1.5365925745850133,1.9492481341665,2.1121029928029653,2.098434054552346,2.091609938925955,2.3095423073039103,2.4160229790457244,2.3713129365538514,2.4845398523107014,2.552530189457432,2.566713632426509,2.5207001779812086,2.4175658746201334,2.3003850202577536,2.075529076166338,1.7084792759138645,1.3993567067244235,1.369091705092143,1.3971222685590914,1.2225470287777784,1.126993404225805,1.097073756346834,1.1190145139198502,1.350928188471723,1.3831842785173172,1.3841647293484038,1.494437611702191,1.5488229718701851,1.624682617704746,1.728821465625533,1.913996762965805,1.9989477154877056,1.960042708376344,2.0196148158182905
2.272532546250912,2.297221999275332,2.379337725567482,2.45169140913208,2.5644074388691225,2.525437209160627,2.331251344447068,2.121989347107894,2.079779616612796,2.101211684128434,2.0273110648824937,1.9207037154911077,1.835936569470586,1.6729658931466331,1.58508353858623,1.5921106492888717,1.6136668969334313,1.557040170493286,1.5821954459141412,1.751420145913971,1.799412131578976,1.7931617729953222,1.8606889089824605,1.865294429848511,1.8872637581298937,1.9444800540887197,1.9608878272235317,1.9498924867619807,1.846395984914666,1.7026923272608787,1.7200273165354578,1.7585971233201467,1.625958781166622,1.488592454580306,1.3242348733370417,1.352538354726183,1.4611794204917008,1.4520951878576267,1.4741067110931516,1.6514473789409987,1.762996656724524,1.8681731123576548,2.036506062170789,2.135349319630528,2.2765071145316575,2.4801349681809683,2.835935038482695,3.3027316999393634,3.515372865914998,3.648835791960705,3.758082634066213,3.7697772783767447,3.677069806707366,3.560143281909151,3.4018173599490167,3.1640323623003974,2.8270824644203825,2.45303642065547,2.147242760399003,1.933446978255178,1.8767777746333245,1.8485527138461462,1.7179323683779555,1.6310111030644037,1.7140053999025426,1.7527212381887765,1.776801280710032,1.7635619160112415,1.644313191873145,1.600756926599028,1.7388023004407545,2.0253617732118254,2.3053992375680306,2.27967502230371,2.237018653154384,2.1915788706969384,2.1255105573986692,2.1789138120314924,2.343386016327754,2.439765910405042,2.5008742868727993,2.6605501999331005,2.766691023292202,2.6188759672479938,2.4959037413787213,2.382442012287183,2.172325955672797,1.900786285998126,1.5615444605842528,1.2376057019556284,1.1674163094748202,1.1850486506197486,1.1109805699079227,1.1328790165428655,1.2347617141064142,1.4959694037482605,1.8843670826469017,2.1516833985085704,2.169171161817224,2.171420616035505,2.326907978194402,2.4358843148434843,2.418112638335968,2.36759362570872,2.2264972558975122,2.182754844146206,2.1618899225892316,2.1203213280685906,2.0765976283915055,2.0172050505434775,1.7844811180479812,1.4875575995532608,1.3232323391654692,1.2735636279340647,1.1919343227845174,1.1682096395636963,1.0891309293111961,0.9880290046429141,1.1983650905069008,1.3620802754169894,1.4283478645734506,1.531095369256495,1.653701580768194,1.759626101828015,1.7032655353130088,1.756830796300824,1.8784933006908158,1.9546332352263922,2.0110769119603096
2.1007149017546514,2.2341175702820095,2.2161625463761747,2.200538536588987,2.3555350392868504,2.329268266657264,2.1802235489752975,2.180556268212377,2.252043350772677,2.314636599920234,2.325987189497485,2.28678653837916,2.160128791650023,1.9729055022467634,1.86330916382854,1.7904604763104368,1.7533816197635381,1.6998538447822618,1.6623659825006538,1.7521482002464117,1.8761168208711692,1.9280452663632837,1.941798783962608,1.929157362822325,1.8795065208485755,1.9428424615006805,1.9396096723175584,1.8540836009082624,1.851196900043347,1.7931369215050137,1.7393718124716129,1.6649443516830738,1.52216336939815,1.4550768718298692,1.3365214996320216,1.4138224700463766,1.5503031433346433,1.452191315339741,1.4009408307202154,1.503582712703318,1.6008248158600449,1.6726678299081732,1.9171489046554868,2.2344542948308437,2.4812385784823827,2.5612602226303824,2.748377933794207,3.1439505023882637,3.4344836310331557,3.6089159167532294,3.713749678531204,3.7552700701300705,3.704010368654152,3.603435413110793,3.4966301100780295,3.2769696584489734,2.920569286248806,2.4709628970497244,2.109679029161917,1.8988381812296864,1.841528092931893,1.8046803846274588,1.7043838678414138,1.582831532721464,1.575639013468518,1.6315111020592097,1.7016287700770119,1.6873751800263919,1.595772679536553,1.5483771296389512,1.7016704005760226,1.9293376211819444,2.02509693163737,1.9468713798515498,1.926465920905454,1.8343637655064717,1.7469315059214436,1.9111107270754282,2.183032741645175,2.4276500124566742,2.5574031847331744,2.660571726550717,2.7052768822529583,2.648426012999788,2.6046572651638553,2.458502882509979,2.2566832956694847,1.9875477218300934,1.5311542272354086,1.2130082628498984,1.0379391480253426,0.986820111861089,1.1167137638749645,1.2430183472660963,1.4432556039956,1.5746957702825353,1.784832085423557,2.019646398242735,2.0709850267837826,2.2285153608345154,2.3444307377212064,2.4301790807361052,2.437025256506196,2.194374949450337,2.0236382094679075,2.0200126175052535,1.9940255507574292,1.9552405367550758,1.9047909559751288,1.8335205932562613,1.713664407145043,1.5724678581463942,1.4229698597970777,1.2546044924751945,1.083105826986306,1.0887765442757833,1.1297001908167634,1.1457551504984294,1.3225525186838514,1.4682572239045046,1.51915545759295,1.535354515710642,1.665442216573547,1.8733886081820013,1.9206430365644755,1.9340942923070332,2.0068907657924107,2.0366461127676194,2.0141208831696953
1.997909608077925,2.127548920862308,2.0918416902848613,2.0407307034054276,2.1230797352411606,2.088091079242851,2.050723445904244,2.24997558924863,2.410390892137573,2.5441690161144983,2.600361838936053,2.597545130507439,2.507263424096172,2.3375219306283097,2.0967488776234986,1.9383999715143465,1.9165449685938711,1.8697969260546767,1.722891562911308,1.7694934734295504,1.9533461982709734,2.087288176613526,2.1421999646480976,2.1141420830992392,2.0385289185828372,2.091453159580126,2.02175398864873,1.8031074569471515,1.7743468906177196,1.7006726294778882,1.6206105919928095,1.5376908960191686,1.416134849413423,1.3330168673111353,1.167084255212279,1.2255266095747364,1.4410399088335373,1.4974280176660537,1.4695558727844942,1.5245671441029207,1.6100187538284363,1.7035368139956417,1.9871204804009968,2.3557129122436193,2.6660096718226938,2.732940689065174,2.832400343126862,3.1085167000623066,3.344032495295305,3.5363245743815,3.6735970931643247,3.758320787738117,3.76848926908937,3.677796639342399,3.4326939525823668,3.125080071439916,2.8092667758771364,2.4945256048446023,2.192413815820301,2.017279699734613,1.927415991678849,1.844834067975553,1.7425248588359574,1.637574370829701,1.5269695888586146,1.5195617725004573,1.6123050909368146,1.6787261500309367,1.6315615473369858,1.6405145480191259,1.7636519350063165,1.8730523939624641,1.8014661451410543,1.6446619478217677,1.5999639058006347,1.5091394564498122,1.4631453326596986,1.720486303612219,2.054902810878303,2.3630213844986394,2.527991329969181,2.566628082678913,2.4717815580291576,2.4489695291655513,2.5938836260535787,2.567637668673498,2.3438120639680764,1.9761103499343453,1.525664321162289,1.269297584302147,1.0981093846000867,0.994198978630038,1.0751591647486791,1.1847002658197057,1.3431853486623881,1.4101202011068579,1.5849400587311697,1.8369258814740104,1.902573505589575,2.1152123132252765,2.267272226503318,2.3958968905945226,2.4695764406016134,2.249161505768345,2.1194287775927707,2.0960153797785575,2.0018054155371763,1.900389845189288,1.8497039548819414,1.817605324621239,1.7702761020677151,1.6959921675278087,1.5526345440663936,1.3567572006303958,1.1366425868561132,1.1690988497023003,1.311811231358096,1.4315855792075143,1.5997174631437863,1.7145411838062308,1.7843038327431298,1.7669344349023175,1.7588238332441803,1.9340234338573796,2.127550065237095,2.249615018403557,2.3593592305347646,2.381836978244353,2.2698575856506538
1.9039275406628065,1.9864619678589583,2.058646022145508,2.07290002973828,2.1208126514653487,2.119588804488671,2.112534027752326,2.201784776196633,2.3505476374614487,2.5652197593936545,2.678648456261609,2.7379844745456254,2.699492655356223,2.5081586963282425,2.2126332017456973,2.0964331229694113,2.0736330481829723,1.9006883723634727,1.67309124857939,1.6771393042788947,1.8894796929920807,2.116100348060045,2.2759103694737717,2.2640176864669797,2.249406711263261,2.2093505935980273,2.0804330546162144,1.8483672323434954,1.6534799432080816,1.5924150220531847,1.5816645797291327,1.521729805999091,1.3475743661903439,1.1448556100576934,1.0022984303662634,1.077577135886619,1.3245763918883622,1.5255366151218612,1.5252859042563474,1.640793713609075,1.8438983405483071,2.016234640054695,2.1766530223170095,2.3512367675866046,2.5268234491054007,2.6944289515686672,2.813626348951111,2.905094617371331,3.045139368611315,3.284651444316965,3.468705262098168,3.596112899067845,3.6329256420831766,3.525102525928981,3.3205621725676973,3.0519049123524895,2.736683969922738,2.4682457182985376,2.250089470004468,2.163355773904327,2.012058704338866,1.851398108967058,1.7290445568509156,1.609967164175873,1.539092569559043,1.6213674258046926,1.6689820770804462,1.6669881741237376,1.7133174141521736,1.7485014489485902,1.6670927143069891,1.639782210013496,1.605096488578753,1.4371518181718366,1.3894894743036055,1.3678795956892948,1.3292565136189105,1.4546216580970006,1.7460550540152633,2.038966661269548,2.271883098094724,2.3479921557747705,2.2044162660195075,2.2165386899970665,2.4514961849792147,2.5542537416029565,2.4221379611849723,2.0899893650467423,1.7120534985934242,1.4676459112648697,1.2789988514497914,1.1354164975234338,1.1178484269408713,1.11927784383707,1.1451087333889747,1.2044112245846346,1.3906837685746332,1.6448447384972162,1.7697084612442786,1.9763707802532873,2.1094208411989768,2.2403953629315048,2.3958064540572956,2.3524555267348375,2.3304062700603874,2.280473301040314,2.1331862966377186,1.9657430885562057,1.875670537900997,1.760768837375528,1.773986768243847,1.773520435518115,1.6403500054821738,1.5244826150139188,1.4166659011727212,1.4467183583850893,1.5350722262868146,1.6373481557704403,1.8044930009883378,1.830984055611666,1.861432953632872,1.9383009830952647,1.9927821455070995,2.0839347641420365,2.2697776031317516,2.436474100865503,2.582252262575867,2.5950400631694883,2.4019887687346912
1.9852277298094012,1.9829829818807583,2.0023197656103933,2.0766968333139255,2.1658891722505196,2.204680601130797,2.2388710247860755,2.299952044510612,2.381124094610103,2.466404945059958,2.538724637600475,2.634608336955898,2.616338053260749,2.410260680844233,2.2010915325080536,2.157114462067301,2.099044130030049,1.8432843216169459,1.6417416580103992,1.7294422270894234,1.9852277298094012,2.1711843490355474,2.2224431999626377,2.1802134042474552,2.1817943580157966,2.090089443714777,2.024769528330467,1.9636055858943746,1.6681140533399275,1.4712454648349866,1.4317308220183276,1.4128344106694082,1.2761848647774277,1.0629322315169167,1.0615078869846388,1.2122779661614562,1.4228393392132548,1.5872895529561752,1.6104262749688274,1.7378411648003305,1.9852277298094012,2.2521686134182892,2.4312132243950395,2.445170978098677,2.4680896812498676,2.653315771819709,2.7780122921316655,2.7775756358277763,2.8541028233117802,2.9703798999538074,3.0922215453915487,3.2597123629437217,3.377524695685228,3.29323536866575,3.1476595138603116,2.9300641947861976,2.6115208539881385,2.333821517431689,2.180483569484349,2.1566748211102507,1.9852277298094012,1.8603364956738766,1.8563383362615409,1.7233698187851596,1.6506499971467954,1.7657748584880055,1.7544329290442784,1.6311831304310442,1.6542986660456114,1.632319958530332,1.4317308220183276,1.3742994145285803,1.4484154971233665,1.3414617346587667,1.27098661962977,1.2598441206894766,1.265274271841282,1.3797188023715776,1.5900579502113459,1.7633064111432413,1.9852277298094012,2.150984309229862,2.1354424160659087,2.188338929171397,2.2914306896265364,2.366837874413527,2.3242064186126066,2.096804147832809,1.790538030899047,1.604980009782858,1.4317308220183276,1.31327547436268,1.3104752820458576,1.2200453636351405,1.1527595902086674,1.2122779661614562,1.3315881927120956,1.4301761424765167,1.5761364144232668,1.8373987247644095,1.9852277298094012,2.147739542772786,2.431390045764166,2.514946632700386,2.4297260629656656,2.3095423073039103,2.158431683840794,1.9829223858343104,1.8986518646427315,1.875216313897674,1.9852277298094012,1.991233936418846,1.8088174541279687,1.7374412212767727,1.656158522506991,1.6609131523148923,1.7222414343160575,1.811022463303844,1.940345888052619,1.9554496461175617,1.9852277298094012,2.0677163599046335,2.082253499737799,2.107289675125916,2.1955029627708593,2.3095423073039103,2.4710127237465347,2.5481443885504995,2.372409433174157
1.9881706968956359,1.9779004454440197,1.9983793014380615,2.115088365064217,2.227669698795917,2.2441687377530632,2.288238255119183,2.3927651388799323,2.415710502870757,2.3695422176096703,2.3988006642940993,2.4929176036235234,2.480115328235298,2.317292168007209,2.239669148877438,2.1579739029969165,2.001526323403717,1.7615778175628436,1.6420025136037553,1.8300402866318621,2.115212684373856,2.237753480948402,2.1564930046998234,2.0625811249606234,2.067571209880965,1.986994726998376,1.9799805220452205,2.0138616861465546,1.6691609088377126,1.2790591012358783,1.150729221904014,1.1810886808498005,1.1620302631458894,1.012473901682432,1.1132740206974099,1.3493475903874375,1.5329371012955715,1.6169670573160113,1.7169445564333734,1.8505527252898941,2.100910203230137,2.4225570807184758,2.6228392154970614,2.5755934240513247,2.6025733277475473,2.712885737425061,2.71777407350876,2.64992848430807,2.679693610661738,2.6680429474578875,2.7157377668268325,2.8761351308677625,3.0665644152329894,3.0800981007553956,3.013721950639404,2.8291325035997548,2.5371290698568125,2.2624854304851856,2.1379771752902266,2.1361910382154683,2.0096904129847566,1.9309387136268592,1.9806384611916994,1.8534087136098483,1.7075240631861899,1.7596271070220848,1.7488507925491303,1.619865480290232,1.5572707156193086,1.4563105078503338,1.2675531859780684,1.199827910775263,1.2893298958789055,1.3306490630895367,1.2926795736678125,1.2780810010124624,1.30780084723942,1.3726705671289476,1.5039916565799307,1.6385129437293906,1.7854580275030376,1.9113634715258676,2.012486151518624,2.1551479003892884,2.199512063334031,2.197488329310237,2.1580687623880506,1.9963193234023253,1.7461331498622188,1.6224520456704512,1.5061057188892821,1.4282444996940344,1.4107235031229832,1.261954966377805,1.2081165245708865,1.2809141636947718,1.3070198887698636,1.229881728865756,1.3447749780287772,1.6203418804211855,1.8083241512721195,2.023729117673121,2.383658637331083,2.5460161607370266,2.5017318875240417,2.3974768700978424,2.2700128185440676,2.0948826420459072,2.0081785856393646,2.0592959419696824,2.22211544483781,2.2605099303122147,2.080558982236365,1.9704754929433057,1.8902829203764127,1.8960166169404893,1.9513466082355087,2.0136031772947383,2.0293920949682613,2.0266974673594156,2.083375597877834,2.153168394904563,2.1369455368842045,2.1364022990798763,2.1330092278362054,2.1275265282313396,2.252379673243883,2.4655315396650352,2.3968054623173622
1.8149809175504255,1.8482481400430193,1.9661718888818267,2.131076347891791,2.318191089866979,2.3172142886635916,2.296285158402348,2.362262880518148,2.378989526341729,2.4018483817844607,2.477087281619655,2.5475404679534077,2.536074141877421,2.439287932892625,2.376514150890146,2.113692490720899,1.8465658472479256,1.7356421867888736,1.7030611252327992,1.8851411207419013,2.1253642630002134,2.2425021723790297,2.1848503026330053,2.0569584868767277,2.0470425914645416,1.9681252535215428,1.9202749808897144,1.8509103424108544,1.4674279542615047,1.127773805972492,1.0331422382084163,1.0540423570223554,1.0352879718632262,0.9134446562568769,0.9549403664752004,1.2150586113197532,1.4394179895407238,1.5799714308380859,1.8132840726381072,1.9882984316904133,2.2550154158108984,2.556351349658613,2.632969715977003,2.588113873951447,2.676139553721669,2.645919832216099,2.5019351532294642,2.4566429332614543,2.454173063180468,2.469657629353399,2.510846059476869,2.584414017477696,2.7529640312179255,2.901367914483656,2.9543385490533933,2.808411216543082,2.6061589941749777,2.4248729241389313,2.3154139087620913,2.3123529536390577,2.253882020835972,2.11741753890449,1.9942393661679203,1.8634386405569827,1.7181672744997885,1.7321223064471756,1.693008906174103,1.5207840884892443,1.405241700460518,1.238676774898232,1.0958422853597505,1.029361038337638,1.1492175955974355,1.3998140236325765,1.4225092025517083,1.414593098213801,1.4375905157929134,1.3505293274648558,1.4265909709138591,1.616934581815297,1.651322982308739,1.606011338898397,1.7494424497785712,2.021379557723888,2.2303856713142203,2.2169598353832334,2.1563880005808476,2.070233172548676,1.8552492548805652,1.6820920346411528,1.6077872539226925,1.5731624627130991,1.4999007641485318,1.344065032654116,1.2629576242655705,1.289395589177493,1.3039201176912145,1.251465998228075,1.3111062346311626,1.466999277652077,1.6510395794391728,1.8664201853485078,2.144940293791937,2.3484082751905886,2.4551903195790308,2.4485729878373066,2.418677371828864,2.335798780560413,2.233175780761297,2.1944612414950915,2.305600616601507,2.3904943590828487,2.2536914669694004,2.0886490083451212,2.155449829758786,2.2260899667249836,2.24270348955441,2.2500828511881314,2.1193344130664094,2.019667263751944,2.0807302982348945,2.2068832133054292,2.303561835595716,2.3207102917800024,2.2956980013494346,2.1393919163530075,2.054786548585746,2.212518656015321,2.2633305048718664
1.7707664048058793,1.7527893439531315,1.7655330397238778,1.9294221116096357,2.198311351285481,2.267633013851729,2.3155646260144533,2.4853065215599437,2.561694652042794,2.6384668594474245,2.7386386239171547,2.8074310131443814,2.7814764692573766,2.6670372585233886,2.450556343988545,2.0823393355790913,1.8545143652284504,1.8863766125052637,1.8601486790280795,1.9716770623064133,2.1310112731741695,2.1961477561052782,2.1246754421655405,1.999622496467516,1.9369707208617823,1.8369257577578173,1.7640315581451416,1.6357129369868582,1.2846561455323067,1.0887230370222254,1.064436001845227,1.0576918610054755,0.9873734325351629,0.8724509244924504,0.8314595433356947,1.0302187627050732,1.3053827523852868,1.604477010670367,1.891508375663602,2.0269026042722604,2.231335842607022,2.492780124003833,2.582509839690103,2.600938913119221,2.645715514923034,2.537995949222544,2.412988282684697,2.482208420649903,2.4874473993541706,2.4795686573066087,2.470693195748555,2.4944525504325195,2.6428864967331966,2.8066222185313556,2.7882194347932927,2.631189130666414,2.551412289935703,2.5605343178667987,2.5066661223154165,2.506433845162689,2.431163397698229,2.2545609753042375,2.0734162278221326,1.9233331871935802,1.7781119455252858,1.7705049151670331,1.6550189107933564,1.3788136947021479,1.2706248116227652,1.1149394262321322,0.9951843781088526,0.97433597266367,1.1507768526383948,1.4053274976405001,1.361889566905176,1.305499849762148,1.3850639604986568,1.440758763784497,1.5366283285648472,1.6716416659437001,1.6383964649334957,1.5338913861517969,1.6297045363480496,1.9032692158697566,2.2268452695489755,2.2766387794902676,2.2371761438683238,2.178178489372702,1.9687621019566799,1.7839633503149273,1.7265485517241166,1.7313318527597912,1.724503925128197,1.6228681341572213,1.4315420311075089,1.332624625120604,1.3408268231552793,1.377633875225724,1.4109917198298345,1.523479122041849,1.6781685302191494,1.8441477214647441,2.0467401981593194,2.2299104000935293,2.2815577971898793,2.2828127742536704,2.3578552437031166,2.4342787570172213,2.3879773840613026,2.356646319992243,2.407908928798702,2.3969288073619794,2.190123983729465,2.0565524735274407,2.2046499349794084,2.31955026689449,2.375252152932391,2.435988700381494,2.320038265418556,2.23190900426558,2.300181909197572,2.3981487108849993,2.4617823822882947,2.5129234399349376,2.56162580398128,2.3466487216328433,2.029513491482836,1.8894054246148522,1.8885599404182813
1.6463455087078416,1.6791039792849607,1.7249341172609916,1.8176314442025276,2.0296231774864983,2.200187553748887,2.3453402991735914,2.5470345305813287,2.684429961402094,2.8044404834643255,2.974579260557592,3.0635923811238164,2.955221449666144,2.8187044038170774,2.558128161625309,2.227141817264069,1.9956307355020473,1.998108210262784,1.982691778850191,1.904766282326848,1.8823747570716562,1.8808864358029715,1.8391495408660103,1.8078670508673047,1.7128997482839403,1.628889463138219,1.584756432971417,1.5157267560856382,1.3483707273259533,1.1215384479772634,1.0690091709267564,1.0799169183904584,0.9782118772803408,0.925241737575376,0.9073705623194807,1.0087509102805527,1.1847805576290904,1.4998171320019307,1.8366413033006088,2.0120478830380923,2.1787304491686506,2.376106691607851,2.486815024032644,2.600546609070593,2.5550009255517705,2.4698146870606625,2.4114783884048236,2.477667355920508,2.5873632878073205,2.5309750552586108,2.426360271142595,2.4599986112857315,2.597644660184866,2.660669400485246,2.6033530490551717,2.5491224887739152,2.527630449833625,2.4812000099591534,2.4132043220870676,2.3932302499082567,2.3022525471231114,2.11942706103059,1.957889569147532,1.8584366092917357,1.784373222062989,1.7231065507260361,1.623516221435284,1.4921773168524806,1.3772319831721234,1.191678477696986,1.1567890266210958,1.1978804323200514,1.2413191672106314,1.3364653324803102,1.256504835060798,1.1516417525450353,1.2302232474170764,1.412830575467419,1.525608617946302,1.7297364396613701,1.732000415067828,1.62012902671079,1.5961700559491019,1.7068411497997422,2.0599612180663374,2.197246015681337,2.2179915047183036,2.2014139059784767,1.926946399804652,1.6785941448527955,1.6444680845470279,1.6948725669084235,1.7601698499616403,1.7304089608875894,1.654457579495773,1.4885657318825753,1.396767636091292,1.4146286047612486,1.3962478425055747,1.48050883851681,1.6962577861946029,1.8356996220315653,1.936691648058978,2.152555365702747,2.3028137856335498,2.2980353713875066,2.3161513500606907,2.4118420521547264,2.4404853509975313,2.3895494147992093,2.290261973678452,2.1858286502888076,2.007475786807926,1.8654996054226662,1.9939241537387111,2.233320265810427,2.369131603564449,2.359038620020095,2.3443574358767374,2.383707598014541,2.437820349550825,2.525452055103811,2.7622622928662306,2.9240788672174203,2.9427241346941497,2.6185385313310485,2.1427482902808714,1.7477524711149752,1.594808126236292
1.6609131523148923,1.7211322877149975,1.7934066537352316,1.8709489403166795,2.1075558350510555,2.362631925922455,2.549247689561431,2.730377598832614,2.875613048532471,2.934075877924902,3.0922215453915487,3.2155350423797553,3.131817160456655,3.0073732067531105,2.809714566638413,2.552660029602192,2.225178673245894,1.9804341811101456,1.9094580875053913,1.8241813815480081,1.7560454304418849,1.67525226118406,1.5814237970881229,1.6069907381418416,1.6018810119304165,1.5841586981839855,1.554882560083929,1.5165892125974632,1.4791022472582558,1.2633970641838064,1.2025485535798595,1.2387803872100345,1.154779504494996,1.1453286389223825,1.1825960389477133,1.2598441206894766,1.3496104254398846,1.578709123589848,1.8834116611481513,1.9464171519820959,2.0327938688728975,2.1859464126402073,2.267893034360781,2.3892146387804183,2.3704695941938754,2.3569902200802826,2.2941300532459032,2.2799620748009755,2.507242949066198,2.6067440480526067,2.538724637600475,2.5467349518195017,2.592966394197216,2.5670605944903304,2.5204036302661152,2.5345186581803545,2.529665952360296,2.431155448932816,2.3329640714256885,2.298274576647053,2.2144100291769178,2.0563223923371425,1.9576938501298942,1.9427510622968251,1.940300638854957,1.8565829463722778,1.7261727483227565,1.5922848107598448,1.4663298184016393,1.3326825242990201,1.3841647293484038,1.4776475613295965,1.4626108787050873,1.4398771621917745,1.33939796298195,1.2122779661614562,1.2125894216778297,1.3212864690207693,1.4320402980756102,1.6483198954350735,1.6609131523148923,1.6201843278491492,1.6672717007094968,1.6831770565845392,1.92917657362745,2.0425233046512803,2.0526030892242733,1.9971028180538422,1.7141191569421872,1.5914022503666252,1.6609131523148923,1.7486779764917582,1.8344188810705409,1.8008443166249974,1.6883230625696193,1.4414602964580208,1.2923285289696158,1.3161195240699906,1.303079528016537,1.4011625301384245,1.6609131523148923,1.7992812707756216,1.871267826536907,2.124639100533789,2.334586733015661,2.3291194360768483,2.3599344180459862,2.5308681026095923,2.5657255111914443,2.4538488648961954,2.261976183704938,2.0905340023905064,1.8632737191391888,1.655857984944667,1.6626289103402458,1.9180844774374912,2.157466914037195,2.257636745441406,2.3666018548459555,2.5194692637169944,2.586290730270399,2.643085803520437,2.9054855605418335,3.1250531013097986,3.0888298659550513,2.7050878439097534,2.268003420134161,1.9259302955131383,1.6544141241829124
1.7320539532504342,1.7428337936348945,1.7791269131742746,1.934264784819652,2.273054535799059,2.587538717369274,2.806382332832747,2.9735680043943993,3.110407207210551,3.0827549060043027,3.181737386708829,3.3109897558352674,3.3073932023828356,3.239022685374411,3.0131728363158987,2.7482333714224563,2.4475894131723415,2.1099246367344615,1.894740940611124,1.8023125958703845,1.7836307238649929,1.6794974586374238,1.4694712199792992,1.4236678047009987,1.4694731066512454,1.510981219417937,1.492475318232844,1.461322683843423,1.472301537189165,1.3848170229770354,1.36035171276564,1.4116105482282062,1.4160207830832952,1.4111046727142236,1.3988721722537674,1.4879280367647412,1.5943008898441842,1.7314186860628915,1.9308925752190589,1.8662588207712685,1.8692855992959312,2.006427696081274,2.0993258859277932,2.166778861789372,2.247089383248487,2.254623018975126,2.157112544466306,2.152531967877709,2.4322517599788323,2.7549295103792475,2.7846363664059193,2.756519325319926,2.7560559463183067,2.648160270616801,2.486789940574473,2.413370751295966,2.3717788208083834,2.306190650055912,2.22758880387009,2.273435272383623,2.2077248236387006,2.067371122135255,2.021937656935924,2.038222156549543,2.0530971421095434,2.0130685416319682,1.8402584864282563,1.6047405261618768,1.5392542356945034,1.5525372103513957,1.6020483690107639,1.644333017393105,1.6085059212889743,1.5233649319955282,1.371970086043066,1.2295038377536356,1.2164726874079959,1.3146634463341578,1.424309520595112,1.59321073367878,1.6478160612382784,1.6493717923677316,1.6657088868279832,1.6664685351832615,1.8190015237195645,1.852661777093421,1.8175164036073785,1.7855691555735769,1.6097183399823054,1.6376651166574112,1.7328687635633542,1.7922241434316057,1.84451005526557,1.796693220801084,1.564445914605207,1.2794416935633404,1.179765041298785,1.3129635239815336,1.3704060040705721,1.4577539665344605,1.6835587519696005,1.8496186525667322,1.9539028882782463,2.171985674283409,2.2655013219848468,2.259096751166373,2.3821904044792683,2.6733523516051325,2.7124136982899176,2.505299367671072,2.24456543372655,2.04394620325055,1.788194676090129,1.5502742556035316,1.4612727643594678,1.5891999165534276,1.8199238588688968,2.0741228019305296,2.2763023642319165,2.483109538472102,2.612122733268042,2.6887451822208077,2.8680246683903423,3.0870957360750078,3.160881805724441,2.8670971062318475,2.477415593467352,2.124239744662149,1.7392439208568955
1.7776968776971096,1.7724458366640052,1.864377723785969,2.1175820350478696,2.3273851824806115,2.562128834022819,2.795858662290825,2.9151890545809556,3.0660446835053685,3.0942846366293026,3.1995731791334703,3.2556516263344144,3.2141515241912324,3.235860004611521,3.0610128984956573,2.82257263802977,2.6826414582551408,2.4552113513318745,2.0909191077031424,1.8299782274964498,1.8212248738210812,1.7960694592195086,1.5551803449609545,1.344122808116339,1.3096756424311284,1.3509854690691734,1.3522135997190405,1.3738192101246858,1.4089284430177906,1.420708698934015,1.412398867811258,1.437102888417427,1.4738742792951827,1.4479125907980204,1.3882971594916687,1.5398910029408885,1.7394314282122099,1.8205724100826841,1.913656002176168,1.9139492868766657,1.9155008580491224,2.019356206447067,2.1281079788748416,2.133320807068772,2.251837146807666,2.1982238684723665,2.1263578277477793,2.295690702094036,2.544301949164088,2.9020666635428327,2.9572747054665394,2.91467977687166,2.9201907765557196,2.7052538710410237,2.4810178997227674,2.324259585646633,2.158417750304535,2.045242741222993,2.009880178160597,2.1118423923742577,2.0302065186680776,1.9470424058902516,1.98152948986169,1.9220573794157596,1.8633394201700386,1.8922395847589693,1.7840859530623856,1.6332655213949372,1.7107889025956122,1.8174876395924604,1.7451735452096857,1.6785774122376655,1.6540892763886252,1.5486058499511244,1.3925582544758586,1.2722333077086168,1.2983558581859835,1.429694762768787,1.4976006636136603,1.5923060899450747,1.7513682778999733,1.7733943377881989,1.6154742049417505,1.6099040689173425,1.7262541226488317,1.6750149425964596,1.5454395195605353,1.5519404034354132,1.5443799831529474,1.5675377678474913,1.5224063170725408,1.5420309528636664,1.6635156152259374,1.6907119294731097,1.574761772871606,1.4180368003095378,1.335406693015123,1.4077597579987544,1.5056705781087598,1.553670048603453,1.711596057969078,1.8797286146121506,1.9552377782705805,2.094106060036685,2.1946729972242727,2.2926650988732082,2.3842824143771826,2.552611780286845,2.650763444895957,2.4622614732464507,2.1776984396140486,1.9687515744818649,1.7432784141687208,1.5475513859074574,1.5090532881212506,1.4821533360148818,1.5437610001093343,1.76255700030295,1.9622567913617643,2.1668767831562876,2.391153704534492,2.6261102097870954,2.867679129062743,3.058460385997616,3.2047004730443294,3.040866706163061,2.7385909931827737,2.3678068196386466,1.8983719567556232
1.9213594422441005,1.9570900861111098,2.0916674978848397,2.3136419526559777,2.3101384647098784,2.396614042437438,2.5607877504885628,2.6407440415575065,2.805756514469459,2.9342961546068893,3.0679563461226493,3.0664095225591064,2.951966909629806,3.004723205894829,2.9981212768191576,2.8870502394449598,2.803838727900615,2.6284443013460477,2.327811724985707,2.0383751509530863,1.9606781611381765,1.932502683481553,1.7575038587853884,1.5258173580932737,1.4339030927965783,1.412254181723314,1.3523068817287112,1.3246548898129458,1.3794153884077618,1.471101242682767,1.5190496493187182,1.5021348930233809,1.4010182770571566,1.3363894944538803,1.3271821023494788,1.5338190121787767,1.8073572318996638,1.9844418432913464,2.064564357395669,2.0370923918716604,2.0184190524174683,2.076704843937435,2.130167791633476,2.14388191722366,2.218201636672449,2.148519542441845,2.1708040609221837,2.4877358127295612,2.7318916376049596,3.030179482813733,3.0888916003354563,3.038580678345166,2.952656627406879,2.6821220976760998,2.5363492866910913,2.4098373240311126,2.206846717028436,2.0378840401935356,1.9532251516412578,1.9428616839041986,1.8722621413138938,1.9017049483229729,2.009554907024961,1.8814789203844542,1.7502096602861585,1.7646775731769684,1.668965406323413,1.5470910998106677,1.6546832378321645,1.7411697335137735,1.6550787275727672,1.653292420388243,1.7550767326491519,1.6869073781708654,1.592916103564681,1.533068518821795,1.5686732041396056,1.6380841743328178,1.6439968495671402,1.6196411519029175,1.7306376502707141,1.8144203594790496,1.7719080423721776,1.7466965534060384,1.802037141766231,1.6739137447608126,1.414631759524175,1.2857244967186598,1.303407128496123,1.336261200761535,1.2730686394450834,1.3436729760378745,1.6124250337861192,1.7316769281516662,1.736440001589753,1.6675808056181998,1.5679769603333409,1.5207743458390302,1.5727268889259007,1.5976080092626315,1.7180977150701633,1.811216450294777,1.7962531313728338,1.9346538490504706,2.1932491784858157,2.376004471103222,2.374047806720666,2.3557765951540675,2.456614076459391,2.424603965134921,2.2269597843503037,1.9854372266911153,1.684286605263227,1.4821299227253193,1.4644475074511945,1.4098223543717359,1.431788721196744,1.6166870257127097,1.7668381218459137,1.980455711593893,2.2582382535727303,2.5452425633809654,2.796640301199444,2.9752729372528477,3.042599722597366,2.9405039238910353,2.8397080730847226,2.707499443663744,2.306860851603509
1.8829546999240536,1.939357039984919,2.148736432393044,2.3181378300458073,2.299811719418478,2.2992175105425527,2.3074318946222583,2.3573170782627093,2.5578160875279696,2.7424849603636514,2.86249789489165,2.8739790669108207,2.7552809880841203,2.7495328863157984,2.7021642446902168,2.6998868770058455,2.682519968953421,2.609166101824922,2.528497576631743,2.2347710546790007,1.9781651434883605,1.8991036916448114,1.8259338368891687,1.6317139656870046,1.4982139557123864,1.4796089578565428,1.4182572007077185,1.242349537525673,1.1933689976189272,1.3096256610890766,1.4243847400405758,1.4275738960688098,1.3171996282946976,1.2360380940716282,1.2553905851667686,1.4308649323821414,1.7223514180118096,2.042407614546117,2.1399199216010483,2.02708465265055,1.9607630923048065,1.9857314856566346,2.0585265045706174,2.1629130864360193,2.230056044981971,2.196752233425239,2.27718430604417,2.5844711125008564,2.8259342544313206,3.0647194356438416,3.1038758582230983,3.012795192636165,2.925278233852369,2.814711216249256,2.75090533190503,2.5183595913221133,2.2724032009709245,2.08496405967265,1.884963850901574,1.799614299303184,1.8414559199976865,1.9383139655632884,2.007616846464957,1.8913244174165802,1.8109425581075629,1.7685733187781232,1.6495560057794019,1.4671110243035823,1.414402946424857,1.5195860518033724,1.5861298373611459,1.6537594799466102,1.7079825863272264,1.626937809261487,1.6417930311596243,1.6878743439368935,1.7632438107494834,1.846989420564384,1.848021662086848,1.8360132425813198,1.8243816935293184,1.8543696172824098,1.9122311318500689,1.8446198843160806,1.8694116429000127,1.7175063516666813,1.4221013102627376,1.24203752528643,1.1985447882775195,1.2031743100850503,1.2093181799554096,1.3054811067588785,1.5188058047019266,1.6526754477327694,1.7195982997064987,1.7172221446418594,1.6610163934781152,1.678420045239919,1.7757095780922127,1.7447240533507526,1.725956600668717,1.7467023526025944,1.7664089813007613,1.9309763813415568,2.245332737021282,2.5014547941803285,2.503952314830494,2.3127001631352653,2.286853901846356,2.2371226520792904,2.075195135231851,1.8880798210692697,1.6942967298871878,1.4978441680109205,1.41020890561738,1.3606302597746232,1.3858314339031546,1.481404698400798,1.6032458799028146,1.8382130711416051,2.151520108598074,2.4571999035632275,2.684676218484653,2.820834301799158,2.8010732998340813,2.8621096734773976,2.9004277332734545,2.802208890771437,2.5766065359574157
1.9852277298094012,2.045886769063467,2.2973291684276895,2.459606028875669,2.50666606045732,2.4814290395618097,2.384108593125741,2.3746298604806095,2.5235987246716225,2.5276615025981175,2.538724637600475,2.5647615146140526,2.4710296728650025,2.4372047377734765,2.3732511672236214,2.4338628850337893,2.4385457903786842,2.3793485816634354,2.4141220797372513,2.254413753034333,1.9852277298094012,1.8471099046720338,1.7660429205496153,1.637937106708155,1.5307757794004186,1.5365925745850133,1.5199805208853812,1.3288554875786622,1.203566181127002,1.2986079299296225,1.4317308220183276,1.4729396962427237,1.4264527180679614,1.3468671425719327,1.3507077880735425,1.489026420056993,1.6980113704460262,1.9185065816241555,2.0222633746096945,2.004590980347219,1.9852277298094012,2.0110655919286318,2.124797225293219,2.277895674155053,2.372764158429101,2.376567317924172,2.3873232346897733,2.487264113813949,2.710211797483396,3.011763894449674,3.0922215453915487,3.0445572839223227,3.103698572918247,3.1328587270871813,3.013509468077588,2.653315771819709,2.36507745484243,2.1408991507347275,1.8612439926122875,1.840012801533091,1.9852277298094012,2.088695935443653,2.1254174764278124,2.0453279198220096,1.89595963790126,1.7657748584880055,1.6929017060926979,1.5710779376448736,1.3799054282490153,1.3501164246700605,1.4317308220183276,1.5339632961890928,1.5643931496488084,1.4682834208084141,1.46893491028179,1.5365925745850133,1.6587617586442438,1.814771883577495,1.8713935376537194,2.000176382563254,1.9852277298094012,1.9568796158704989,2.0136553198040397,1.941974994483031,1.9712352553494494,1.8133409975515018,1.565534802679631,1.4824043561708786,1.4062609981762686,1.388557520220252,1.4317308220183276,1.5040508238493273,1.5893311794344098,1.6705035388243838,1.7315842647229616,1.7657748584880055,1.7518557042366456,1.8416144313702203,2.020279794222856,2.040183402297379,1.9852277298094012,1.9976037942132678,2.08785018061791,2.2665331459651585,2.4094270192763747,2.586290730270399,2.6661615953079396,2.5302246546887743,2.3765895868389477,2.190462564021197,1.9852277298094012,1.771464396103373,1.5425723039960486,1.3266842683880538,1.1690104544822608,1.1074162445238187,1.1319392683393406,1.202317637305257,1.3717942234744362,1.654522994432926,1.9852277298094012,2.2902849539613386,2.493240131739188,2.6041969790670656,2.6586691570736356,2.8630392150949837,2.928580775771668,2.7555687519494967,2.5854481611366302
