1.2820231029017255,1.636906832988287,1.7904816879898695,1.9771397786759692,1.9810944401181985,1.88585375838501,1.8305117763547263,1.9312220703356857,2.1813612500387283,2.4503441732657514,2.714983353678947,2.950040161640114,3.1197951799293664,3.1926879456748005,2.9747095622093864,2.6868412049245127,2.550336219550035,2.438162238492694,2.2357997603183444,2.177949905331625,2.448173416634192,2.6861202177706223,2.5869687616494024,2.464961107717423,2.484486819193479,2.436959866567831,2.3988224603154835,2.336214463356393,2.0656598224854847,1.964927707809155,2.0739251963606598,2.1952710866116703,2.212161815968062,2.093661047119886,2.084528733095299,2.066334137711189,1.9625158644919376,1.9681317868762238,2.017482840221676,1.897516715684853,2.011012337243624,2.231180527612771,2.2519255886294633,2.220311467903817,2.062282936723237,1.9881851731376596,2.049545141927913,2.043067141053401,1.7988571356093335,1.6129991460325326,1.4361201021642893,1.1871151258731665,1.0550708934367907,1.1829941234328158,1.4378611335405747,1.613423652487627,1.7056582660939374,1.8615221017178507,2.098992365291702,2.1405304144077464,2.0277104747066885,1.930272244574248,1.94693685155582,2.0771708937076396,2.2019673192126694,2.4104039688248697,2.6120423219591453,2.5665384801625146,2.462969276659101,2.4193911390982668,2.356319296500451,2.1422628248546216,1.8914618092166522,1.6970315563671046,1.546213103165308,1.306245470296142,1.1435926445041178,1.1410181244966582,1.0800561965688174,0.863929496255643,0.6846040572273809,0.5097072656070036,0.41567994459351787,0.5016946236911464,0.44469488813237573,0.29041433904325126,0.27553890883079785,0.4399177702061869,0.6453901248013305,0.7612132693081238,0.943293508162699,1.2576343284484264,1.59169451733332,1.8018624873898264,1.835864622077282,1.780246712502706,1.718599470232327,1.7947368598373623,1.9832992634588398,2.128489172542056,2.169077878965983,2.173272357488605,2.1965246556269005,2.3828634023974375,2.682421739962513,2.8361235967785867,2.9115563327530776,3.0056552636323155,2.860150160075135,2.497132797787546,2.1997360013777634,2.012659896770811,1.868184370829708,1.8159843624928398,1.8595706998457282,1.9168702893309426,2.0393569952632453,2.2563831706510005,2.4014634704796585,2.4980331399096247,2.472538772547446,2.4221110588423684,2.529844897919278,2.7628275300825846,3.0438693003683084,3.1196086243381456,3.104798726401362,2.957452179110015,2.6428167938875826
1.361786914538976,1.7251139201321426,1.893683870287316,2.0823024606510723,2.137728447197534,2.0140768959818476,1.8862501931451523,1.9289025985430035,2.1089393819183373,2.3106891465273276,2.543990356714241,2.755272953488798,2.892712038034616,2.9712276976391006,2.883084144432871,2.6051786088118845,2.4356814256757966,2.3335534367814033,2.153352956902818,2.1887650099134084,2.543990356714241,2.8710736373365915,2.8159726201924364,2.572592552613598,2.492994718640279,2.3910196604093694,2.2746182199940956,2.1531952698644874,1.858728697633882,1.7905570137734705,1.9528886356266084,2.0790456485809257,2.089305446399322,2.037149038165218,2.0719411274418453,2.044671030288265,1.9365460134427706,1.910383275291247,1.8887094618961195,1.7952546110576864,1.9528886356266084,2.154210309984179,2.2260530894669484,2.3752428641330297,2.3749256733854205,2.3298314083117253,2.3862512294733524,2.3730233546592885,2.140073356512293,1.830916522384458,1.6573377750827922,1.4749738052564416,1.329441914060366,1.387604847512274,1.4805793251351487,1.5147576108438476,1.519502425057534,1.6917866787020566,2.000035445727484,2.0844819785911604,1.9528886356266084,1.7951382450258393,1.8012541503499337,2.0609338108161155,2.235293503670567,2.452207945537394,2.6958938414128175,2.6071774753413344,2.3992127142656035,2.3079483515825086,2.2484394961704246,2.0068220122913973,1.6894374589225927,1.4503481369114573,1.2604430338563386,1.0460324600122648,0.948072806094026,1.0978727179557577,1.1774102054232054,0.9389506076235836,0.7706851934513438,0.6169316771195711,0.405441319249267,0.4376818776635286,0.4201478981546521,0.33255423472934476,0.3712760144802547,0.5479987255557841,0.7481385233398287,0.8496252273893996,1.066236087025541,1.3684304471672781,1.54098994297569,1.6491411869758037,1.7504337219313604,1.738729720254474,1.591758265968422,1.6283301642884902,1.8701821803869694,1.9823942000566934,1.9528886356266084,1.9411268958117411,1.9615043684288946,2.140124140722899,2.476991466072613,2.6051786088118845,2.6552928311720123,2.783949930170472,2.692020698950605,2.458471397572888,2.2484394961704246,2.0749049765487597,1.972220093368299,2.0092697369242467,2.1781263040807253,2.1872512275575904,2.231284011796074,2.4921927409924667,2.645537043935493,2.6455713955316105,2.543990356714241,2.4417247302227127,2.4373837784760695,2.5663626264146995,2.741767557414564,2.839541184227676,2.923052292575979,2.896499962114153,2.697354709098463
1.4453541415043978,1.7793431334033005,2.025374912989719,2.2078273381760716,2.260729869683917,2.130853404629631,1.9736326314135173,1.9184119741010104,1.9900349983309749,2.099058161810419,2.2604140001515436,2.493488721016749,2.7346540024663124,2.7612961755641376,2.6354622492804167,2.4218687809985995,2.26514533796983,2.148944639694366,2.12529719910958,2.366089121648845,2.794258579922192,3.1072526194578405,2.9801603017232807,2.6660457395465946,2.49129586706038,2.329893571488545,2.167881568116011,1.999236849564914,1.6722020410265077,1.5290791215689115,1.680869229485111,1.8566076764983357,1.899256818081676,1.8500438048911256,1.9375262581206016,2.037993055230298,2.0088282033078078,1.8917899619219163,1.7585628124550168,1.5996757143265776,1.7639655423102993,2.0098024550359077,2.1614562176686247,2.4002965731838626,2.59734697338326,2.627901462975024,2.679074573285464,2.7256528273114213,2.5179821687470634,2.061656944944763,1.7765931064670248,1.6264563177506786,1.5838008508493993,1.5769046027769698,1.4189871775400809,1.3369645172454592,1.407660465388818,1.657307122889334,1.9417120269446653,2.1013637154263574,1.9906504203875666,1.7797265005190064,1.7828151879504641,2.1245551881182587,2.370887874474511,2.5214059659077583,2.680859336886037,2.607479967569451,2.381979377283514,2.3062387981592036,2.2386652119206114,1.9452948850010956,1.4722530597528178,1.143755087917295,0.9731677040298188,0.8374426320087248,0.862345821613879,1.2187664883532565,1.3881279826846815,1.1361141038471212,0.8901178319201505,0.72071419082272,0.5690714479508249,0.5585704292608481,0.48222347840430757,0.4019689013679136,0.4379762444179482,0.6116699374450829,0.8851276680372734,0.9957707239711185,1.1533930888155894,1.4153658256713308,1.6034564708134635,1.7107396598888105,1.7891179791695884,1.7246069533311768,1.5212909541215276,1.4617237670568062,1.627413075763304,1.7142188489982446,1.6439104297985827,1.656614244589574,1.8312663884363543,2.026026371191853,2.2882071499015795,2.389729757975169,2.46106960036344,2.6301349112694967,2.620047102644353,2.454695628673515,2.257230532042145,2.1201378040702545,2.1021679556552604,2.154335280430246,2.3716038079801267,2.3947514328414075,2.396245463029458,2.592059205768637,2.7133292582651425,2.675529554626932,2.5842494364521564,2.429760994145761,2.2382023241629327,2.274785155539073,2.447036510924237,2.5318888178882504,2.6476776107989264,2.8232792707473235,2.7996949181900224
1.595466025313559,1.795138988209409,2.037096519859616,2.179965551294563,2.17175680800741,2.027826997632845,1.9366660066233181,1.9160198685007688,1.8836086833964665,1.9944960526713023,2.0914238994227543,2.2273178062357264,2.4269681433206722,2.390665905030124,2.243459274432193,2.1635609961143722,2.150349999824939,2.2003293426247352,2.3459669475548237,2.586869868689042,2.9556241457104866,3.2470467040997772,3.0635494619053683,2.6846652294927744,2.466592907624132,2.2808250579567577,2.118786349521281,1.9847098320675982,1.6561711750604242,1.4693873769378842,1.655465249760216,1.8982534335576382,1.8930455045024042,1.7519588171926304,1.7253439602197946,1.9525313085471243,2.0873259852186403,1.90231493176683,1.6383652894561278,1.4108166173732273,1.5959956014102388,1.9016025696711476,2.115685424333706,2.3894846064882636,2.683165518079212,2.7376822938463277,2.734007399730168,2.791199570287957,2.615086533982746,2.2578963584599623,1.9674156964762992,1.7327815762348788,1.6404203736938383,1.6384973118885127,1.441450545031012,1.3597113514651187,1.4579041998723838,1.6288343730526527,1.8754652576875073,2.0744333770281234,1.9459277336802008,1.7289759809015695,1.8662548102969438,2.2815233532389825,2.646690927261222,2.66845642886488,2.5878097151466557,2.4438331915559286,2.2263691571816073,2.096206368270646,1.9605680056442645,1.7608248155137622,1.3864672151339392,0.9860451265027255,0.892160100370079,0.8889295309375429,0.9178686367218959,1.2281997669508447,1.4717922859395152,1.432947798323629,1.191436358482423,0.9935101247035606,0.9479437233655394,0.8803687168205695,0.6178227046742415,0.4957371320737616,0.4924924916989698,0.5971155625348016,0.9691402436281258,1.2155624753469494,1.3376511528032322,1.5400549189536847,1.777878202980807,1.8856237761005243,1.8019849640421364,1.6086358327180323,1.419742351138184,1.359364994891191,1.431494990050919,1.5644987220215334,1.4664638909564072,1.3698354274484712,1.5285605776194462,1.7551482142553971,2.0568939227336154,2.163746610339738,2.2403861938557017,2.4501262718430734,2.521860860313264,2.5224279258922446,2.3805247853702367,2.280631764167837,2.353444530330775,2.3780012312404777,2.437909490018186,2.365325888637807,2.316124890248302,2.455123372105936,2.5415523182405853,2.469355238377286,2.437270385178502,2.3791707379363634,2.2138136322855853,2.2019692019443795,2.343198109816636,2.334247504174875,2.338536135798201,2.588602708530869,2.782002591035198
1.5827877099766086,1.7612630956376842,1.943258544472336,2.053187335967,2.107073759945365,2.0327998866265204,1.9814539634277053,1.9758838232157203,1.9185845144887435,1.9823155774282004,2.0039472750233047,1.9831310149562225,1.9845434910694768,1.966060077002736,2.047342387114875,2.1319091051481878,2.2078813428488133,2.3387905357917536,2.4933834531928785,2.5633610896431986,2.829417306426609,3.13665600027587,3.019753885347188,2.669025674448999,2.529247642572171,2.385355676756501,2.199830715994942,2.0172909130647643,1.6946737982341826,1.5640910940910697,1.7663521029353504,1.942322772105764,1.812955261868493,1.6208185602202307,1.5394504960139266,1.7368767489173798,1.8454932753777866,1.6304369410722812,1.4116150607702858,1.3621415287081244,1.6386622986410178,1.9462359819682857,2.1406895547828353,2.4006557125151917,2.6389595060081934,2.696293442960727,2.7021398864375867,2.6951568014938188,2.4865657513661863,2.2726993860775226,2.1175875613927433,1.9190614029991189,1.7960242519626157,1.7946390073339997,1.649424719765294,1.560384953234596,1.5486642877305545,1.5733781141621128,1.812833165065563,2.0336301052499874,1.9343813705282726,1.7866031946059537,2.0152811754112068,2.3964995327192016,2.6265190754743544,2.5204222551043336,2.416011437496049,2.3790255694123874,2.17653395896398,1.8994598806057428,1.6727260019584373,1.5120879303090673,1.261282864320642,0.9626773871832477,0.9614350484975174,1.0241253241353852,1.0469600191681907,1.2448674256299506,1.4793135018486114,1.6681969421926717,1.6210797644722448,1.4949083998174344,1.4454105243645632,1.3560507264735002,1.079056366939522,0.9120238447640802,0.8120281321075187,0.8158345532003499,1.154473446513475,1.4225733520531916,1.5624546369006562,1.7033603424959831,1.8035493159110847,1.8666165590283625,1.8439763881661657,1.6782746600364562,1.467743553972534,1.3607779024637956,1.3734801978572664,1.402607907116455,1.235909454213253,1.0790944179382977,1.203773073620293,1.4710347341539887,1.8398685070446206,1.9515464802910774,1.9461826755784395,2.0347834270592413,2.1536673235528614,2.3567923906458224,2.3811395798495916,2.3588416285061173,2.4353863983137596,2.445227106659526,2.463295352579167,2.3523381446927543,2.283029670728721,2.418908234929773,2.4841355410927997,2.4351227167831793,2.4308361991042293,2.417007039236591,2.3113608193225614,2.2845281269878095,2.2822048360573377,2.1654503504160076,2.0797082710517976,2.2495083592957634,2.501368349588795
1.565892042578275,1.8205145783219365,1.8712746602346386,1.956604483028214,1.9950879405815156,2.0667306756912716,2.095453126949825,1.9492897245470198,1.866677145004495,1.9571113275135508,1.9461264444515864,1.8649402341682246,1.7683996232158392,1.689289532361813,1.905263140988397,2.057984288636908,2.1353223656173816,2.2424761581756236,2.2888952387961115,2.3355023283445786,2.6280403226962514,2.957180339075357,2.94247369410921,2.690221005617873,2.526933666209108,2.4354255062847234,2.321089818920185,2.1712287017626797,1.8903614722671307,1.7289059069485286,1.8689616169798353,1.9194538390187756,1.687933684772182,1.5671342821728627,1.4609617231394796,1.4254123132899919,1.412305560882622,1.3784603205043555,1.3570446766949986,1.473025243997075,1.7249786607224313,1.9276347604032322,2.045982922698537,2.270919808246748,2.410754322074884,2.426094985202059,2.545053472553306,2.656213718191,2.4140890362983405,2.172013668764338,2.1515697457301464,2.15053880148206,2.061300348952762,1.9737242184665065,1.9070238543428906,1.7508451979011967,1.6483911000563565,1.7429387982054463,1.8806723155664455,2.0488519168091543,2.0622377263894047,2.0299608015257924,2.2081651729117318,2.4453388154076685,2.540207056888027,2.3606863752783718,2.183552039596292,2.2120501402503003,2.152213887702915,1.8636377471589083,1.6548741380639533,1.4888443191609437,1.2364581549004632,1.1238421282557798,1.109338554071295,1.1724051118081695,1.3198780993975325,1.4171977896861843,1.4404631348249282,1.6428428218277176,1.8856260180376267,1.9518502837349974,1.839791554514761,1.720888492142634,1.542990626176088,1.345555124765988,1.0918487692120384,0.9785249675658175,1.2217480747747047,1.4084181492958683,1.5229591865383494,1.6501337499213051,1.7943181667293033,1.9190598794728009,1.8828080930246507,1.7446669147028069,1.5658443797386623,1.3106329618494477,1.1938181792478175,1.1342746419358076,1.0005243903268812,0.8644577181067065,1.0383840110760116,1.3879259028144462,1.7494360062464414,1.8135035331607519,1.7167269779401317,1.6975111740127005,1.8923880512861402,2.1413733992734243,2.340400700798985,2.4684591902047215,2.5427208670554253,2.6198950307707727,2.529185479395351,2.382329928715814,2.3261584960184187,2.3715000265233956,2.4072684608285115,2.4031963433518664,2.4212398164858464,2.472251011869203,2.441896719415965,2.3442917457276358,2.1766476165045945,2.040222647227803,1.9279539391668905,2.0162132679869087,2.269381979773648
1.4737730187898606,1.8112577645342098,1.8990544244228222,2.0088909321299,1.9554556510283116,2.04390437037521,2.1691068300948255,2.068066614218826,1.9484370651343916,1.893245218571609,1.7797143123084609,1.7229768214587022,1.6830417862724283,1.5205708257575403,1.617084409600769,1.7140343412906383,1.8561826250419569,2.079601277390526,2.0748016244869802,2.113234702193792,2.432004252463356,2.742414292272232,2.7320595321088,2.6077816670684264,2.60505857640776,2.632791742986114,2.5203923295792543,2.2732607704309915,1.9744408745117037,1.73529061351224,1.810308438357283,1.838397664183949,1.643933848338628,1.5518586888960249,1.4765967199906933,1.331896335602939,1.2229295714988506,1.2520519958970981,1.338271331234671,1.4216137864581913,1.6065399889903134,1.7994267445276422,1.926010929075911,2.098167778348176,2.2446856924743384,2.2652901431596164,2.383074961986986,2.493636498940815,2.303835507646236,2.113002762859239,2.1872512275575904,2.3155216233718745,2.280804612150992,2.1459636478197734,2.0782824981458394,1.862181817515205,1.695544594680563,1.7775640675434294,1.8070215025797718,1.9198846522122197,2.003686438234278,2.0342980456121813,2.164996645104214,2.3405395605202126,2.469990742905454,2.295117634068169,2.002347411366111,1.9466716485633204,2.0103871258078985,1.913508159891354,1.8305121149161303,1.6765352636640245,1.3884068251600867,1.3441066104427928,1.3601217209171956,1.439762758628708,1.6511816387547837,1.7112191619280732,1.584036423525849,1.55687237041009,1.8305121149161303,2.0866927019835866,2.14412530894141,2.057263086785542,1.7986421408601732,1.5158963001943706,1.2213023628150843,1.0978665082441519,1.2611531870452997,1.4299156754194313,1.5349612708875044,1.6344394635364083,1.8108750910565026,1.9927219826565397,1.848458875094888,1.6741884551023647,1.5954980978133955,1.4101389000182922,1.2339175240637885,1.143156247111906,1.0154382679026812,0.8013007892477391,0.8531432932571318,1.2051511671714479,1.527398998214972,1.5703785592134647,1.5538447396376924,1.7017422667125304,1.9648746610174586,2.1242146944369376,2.3402218743168905,2.5506632863815275,2.674485464287255,2.839690547610024,2.7832124938869023,2.6667389151197822,2.617099273272166,2.591091944094891,2.5941766513654527,2.5173062350326956,2.482802071586216,2.4990217392094203,2.3922242123393707,2.2280276621512596,2.128876519818658,2.0603829879269333,1.9054954643011277,1.8840156094313365,2.076664760923791
1.5235505294472782,1.88502295760108,2.0365584219246684,2.1172731947426997,2.0276724567382933,2.0869762430306724,2.2082030587586035,2.2035044045021994,2.0782465032882733,1.8514787189549928,1.6455913128512822,1.6074411899022956,1.5711582083238014,1.3495861524488162,1.3742412178327856,1.4798669919410494,1.64630658574928,1.8716537168856393,1.8915748144072444,1.916256403187062,2.147337117117605,2.423934534049335,2.5187236347371003,2.5279864765693376,2.7635617293888277,2.923399243696763,2.797445549251964,2.4500529443975156,2.101796892356433,1.7773435897510428,1.7949837949648355,1.8177868551503513,1.6544855026024967,1.5461813939996614,1.4313790864444043,1.2700272612945571,1.1798239995972937,1.1812301029114365,1.2368779710414723,1.3587331897656818,1.6063230784790619,1.8208919917114883,1.9238651310259058,2.0182208215065303,2.131462187579665,2.129079887873748,2.145329761780269,2.2099118359679575,2.1987833226171767,2.1950709059883353,2.2551923263290647,2.3632767498686547,2.4340132923501177,2.362856768575741,2.26483858482258,2.0010563363533893,1.7443156696325086,1.7086297947644071,1.722950364123616,1.7527982678075535,1.8426886574795085,1.9609624936763337,2.0892164295228453,2.2149943362805904,2.360309762875556,2.2666027044351016,1.9843139072139606,1.8392081223820533,1.9349507791998972,1.998336697367525,2.0321059018090013,1.9211085289794358,1.6486636997897748,1.602257269805165,1.6806190408651211,1.7748814886449147,1.9076449411098035,1.900385866689779,1.763909836572942,1.5700336559762957,1.75371124405032,2.0930470784000534,2.339699234600196,2.3553765763997006,1.9892320421581284,1.6356403490941318,1.4399979679709682,1.3874085149283117,1.4106449915141648,1.5361212318033155,1.6149487642640874,1.6928205626540413,1.8891736832554267,2.0471812484017424,1.8738854723730922,1.654172209439832,1.5754278144477396,1.5748300636449197,1.493181901808737,1.4401063406506416,1.2333899628203426,0.8791072205139276,0.7183297936876167,0.9598306307765595,1.2908200842420046,1.414881104831889,1.5056035710862352,1.7834907087850707,2.0904432769599417,2.1865122388461193,2.357826307628188,2.584110048244835,2.693248636390271,2.8371038724224,2.9023216328053514,2.932150709172187,2.9498552575679375,2.9355558771980643,2.8992433994894427,2.6941510263959647,2.5799671796923405,2.5164559669680338,2.278381800682923,2.082638470458189,2.1442839538607856,2.1200152118116113,1.8831828144381608,1.754266633389659,1.8851861194250414
1.7571582945991562,2.116550853343193,2.263819729693896,2.2178745029175406,2.2093670658960725,2.3091304758838915,2.296544117127316,2.2325540299409834,2.1321944876390075,1.8813129150308645,1.6669466101547679,1.5988408053890255,1.4416721128259677,1.1963457961144248,1.2243027104928734,1.390859991548186,1.5222588103421293,1.6310838741122342,1.7432376075460945,1.9107467952768404,2.0368392627381167,2.244720407404645,2.490741253934992,2.5548413653200424,2.755620036731105,2.9201953628119792,2.8828245916999014,2.654924674546703,2.3014936206113275,1.9133011956535453,1.8536190711209501,1.805038209874908,1.6362650857181322,1.5903029473867651,1.4196176614503548,1.2263057388503142,1.2038408519618626,1.1698815246480299,1.1113795013059882,1.3294421122426512,1.702658166144005,1.9232272565679096,2.006888543736089,2.0681543429104483,2.0601517422303792,1.9408467630870827,1.8571283509073677,2.013212945081905,2.2376129961072375,2.349597250656793,2.2334987979253484,2.206197272364359,2.386779385263654,2.4531054470467173,2.39883580458936,2.106964165141599,1.7847244430565812,1.7470637312611217,1.861086678721875,1.8634847669498538,1.9914905976708692,2.250871490084379,2.348525943283269,2.3531883797270354,2.351757041201899,2.375786775415012,2.271644527833678,2.1193837865354825,2.148424378165095,2.1731960077631967,2.235844252241392,2.148195048230632,1.903448208263686,1.8815926906145295,1.922878482582981,1.9570879069091067,1.9551404885525288,1.8632605649820226,1.7936916629799255,1.6454100751513832,1.8108817631934406,2.0854521882264,2.251310298694395,2.3719290911710518,2.1725592645957454,1.922199165318972,1.84520707538504,1.743005569120399,1.541035822174735,1.564950247328189,1.5944798702619487,1.691854704771483,1.9744222949224575,2.0550177062659754,2.0446094203703247,1.847987787545155,1.5740558645474285,1.5821311320654379,1.6832607446672945,1.7129077575747087,1.4113351282923114,1.0807618576259783,0.9585683417407764,0.992903885092854,1.1682144152641583,1.3574969286700338,1.490565003822606,1.7209821332724342,2.0804481928715286,2.227878513466387,2.3890367145235047,2.6357889197473385,2.6826415241169013,2.6641697460340255,2.704197414923483,2.916316869428064,3.0505372754784634,3.000488585394005,2.8937805708561455,2.6453736096108895,2.5087802349371717,2.430390057749657,2.1808953895467695,1.9629968745745274,2.0034922361098824,1.9343309001062852,1.7194786729106417,1.6899252185570757,1.8268988224603155
1.8313195343191933,2.2121744500887495,2.4027247355736345,2.339929093020753,2.38091368507474,2.5118916968162477,2.4922416920169335,2.409877926978944,2.2846789106765355,2.000488164256649,1.7471477935804662,1.5931057073261186,1.3401701817708103,1.1093162915945807,1.0862098886486407,1.2119545668432186,1.3950936936481058,1.6220488097865584,1.777677675538473,2.0048071962167793,2.1440658212254418,2.2982856769896958,2.4583743873442376,2.4926808639611395,2.6016202458794764,2.7323891753100016,2.748255649070436,2.6218652929903783,2.318079231824323,1.9803403441362717,1.8691134163527734,1.7483948886410436,1.6201160700796342,1.6689003571839327,1.5976295152613242,1.385450540010394,1.2580600239972324,1.1023186732832244,1.0356790871248303,1.251869139708536,1.6393124686582974,1.9286013965641402,2.1472017751319417,2.2638428839908946,2.197734938327985,1.9712010483149254,1.7864369692141657,1.8869593884530678,2.122785321219463,2.252598285366504,2.1014962828600265,2.0027486025011,2.1386796561061714,2.2558827273502584,2.2927262675226996,2.0366829134302122,1.7250728633687065,1.7089470680879684,1.8659057782621646,1.9881683069994218,2.218798346155617,2.5327491271887004,2.622729235632726,2.592002261391997,2.5042407706014282,2.5346920402529363,2.530768097064927,2.481036861971125,2.478963346780882,2.363549184450169,2.3521984922423855,2.264420023836044,2.0561930593392774,2.069643146040724,2.0674697882666706,2.0391632720793726,1.9795315746163902,1.8286537926573332,1.7292273421000808,1.6405191345326753,1.8515023026469424,2.0776648382809433,2.119872421475059,2.242170329879038,2.2681404668474396,2.224302809584016,2.194382057395043,1.9904999050706853,1.7422438555068813,1.7565688013915568,1.783984281766589,1.8359042420191498,2.048604651377872,2.132232753335259,2.2936299126828668,2.1884795943922075,1.8550120778890733,1.7397819360678481,1.828246825334487,1.8364448750358298,1.5648617919681873,1.3606578700596708,1.3409491042127675,1.2332663631350826,1.1310048984715455,1.2189964458649563,1.3780658716958636,1.6428545145825497,2.012575388541325,2.211491299236159,2.3598223996056436,2.5621686928933616,2.5720934635584727,2.4980024546857855,2.5124848563961253,2.785594777077629,2.9661564111407777,2.8554699532864536,2.683406309555841,2.42993361091625,2.292776770975068,2.2121091655409364,1.9789229175946828,1.7329923430952863,1.6802549634918502,1.6287747532151609,1.554458807448668,1.6709946154533695,1.8356793298981298
1.9688525448818468,2.277912505031353,2.462258528923284,2.5162602949916892,2.468194484732334,2.5570931785062854,2.64511333020954,2.508496041540064,2.2504356211782612,1.9563203776261051,1.8093575927828354,1.6541874364454183,1.3817230615278704,1.206829639006343,1.1049729946908948,1.206467493910354,1.4320224191728412,1.5664057640921312,1.649842322870784,1.9657049518948835,2.1855661166161378,2.2432214226594622,2.3346196574762716,2.4746578366329253,2.6015576202773243,2.6113229863242995,2.639980475081253,2.6391881423046577,2.3740586589176513,2.1746956861463778,1.973183453328303,1.7418450962336844,1.696767742715001,1.7205916315944578,1.6616949777768295,1.4613365188713465,1.281464691282536,1.0761763159089046,1.0359994818193847,1.3017652294333195,1.781096369505322,2.128422071323294,2.347001525144807,2.5035034664393825,2.342477452966554,2.1326944850296075,1.965109629857258,1.8592249047882756,1.9560538049049983,2.0573424753059917,1.9080088492023723,1.7768778118350366,1.962369922850609,2.1267641113549267,2.04050210902285,1.7559707698304994,1.5725304224671595,1.6210193519056117,1.758424547280645,1.9048481926997705,2.1995380337899477,2.4906798174265514,2.5427837569006244,2.5706951554142177,2.532468368951204,2.5903210810658694,2.624585543038289,2.647350477906672,2.713100952272487,2.5627019353623193,2.362453830959363,2.212068224383833,2.0972518624015106,2.073712951390708,2.1123644177183154,2.1740727827085164,2.1907326957633053,1.986058722633256,1.7495418851323583,1.6002023837497397,1.850438319760379,2.0878351320247446,2.126182875742548,2.2227982592196547,2.2574827850609402,2.366604891046316,2.4405426719820915,2.246922278654995,2.0894726957329173,2.0570496196914974,2.087189908307002,2.128059678499448,2.3174203087561094,2.5139679865584847,2.707781739735264,2.562211103902414,2.212445530424647,1.9486472175781049,1.8836159087922844,1.8412289458571942,1.7661714762974978,1.725190567130979,1.6680059935607934,1.4985109904298435,1.256870269677866,1.2681866763502936,1.4965499106561229,1.7659625095928484,1.9405646743445566,2.1355587970837346,2.2634632988537997,2.317414891773645,2.2900939113183156,2.2692019972282225,2.3610995523128238,2.6105469044950977,2.7934729192825354,2.6774375876089564,2.434193506108209,2.1852770347226596,2.014396200673833,1.8247129461719076,1.5761441112875447,1.3725792611883314,1.3934359648924046,1.482170827977182,1.5839463496771842,1.7257596475631936,1.8405710467307883
1.9528886356266084,2.2132709926732668,2.384950889438793,2.534641768013234,2.503209033624201,2.5947881097763386,2.7775370156614874,2.7027002798796294,2.407459937946484,2.0657443472301615,1.9528886356266084,1.7837414424063451,1.4426306544791607,1.2587637032315406,1.1845320179666774,1.3109891614768783,1.54254088451,1.5950919232196905,1.5845337950011689,1.7719883080378969,1.9528886356266084,2.0212054178214363,2.209871406781758,2.4494473323640458,2.637204733993461,2.5947881097763386,2.6161518298269493,2.6753108935054937,2.4348495225029048,2.2271285091228923,1.9528886356266084,1.6771355743213627,1.6404086809390062,1.595228272631971,1.4879701371005232,1.3109891614768783,1.211713577184304,1.1460437630086027,1.1705924045053704,1.444451784529085,1.9528886356266084,2.3396340986890967,2.569033727255858,2.7224559488673847,2.5007875764017484,2.2992372822629035,2.1757293884312676,2.02742101296383,2.042622717278635,2.1114335555243016,1.9528886356266084,1.7380521350210625,1.807467759540677,1.9477376050151414,1.8670318004616193,1.6065399889903134,1.407978250683283,1.3378972291408024,1.4424416876701354,1.621224074206318,1.9528886356266084,2.2597650192279755,2.368967356008514,2.446284111878128,2.4152909457978717,2.482802071586216,2.5007217138222697,2.4945425222884055,2.6612273997050653,2.7242221493939023,2.543990356714241,2.370642161471131,2.2835273394774687,2.188515927811178,2.100947648233578,2.136453424949921,2.1858111690119006,1.9626880714792636,1.6849535186571116,1.6264212064558012,1.9528886356266084,2.1810830186253694,2.20065948128165,2.296385207964893,2.276831354604326,2.432004252463356,2.6400329273260934,2.6243473939921302,2.5705850321243577,2.51849328086083,2.543990356714241,2.5641708624608994,2.710103643389739,2.9515404676005326,3.0200594824311073,2.778352932130032,2.5016949209645745,2.307271360895953,2.122387866646311,1.968725928077733,1.9528886356266084,1.9213709677419355,1.7437998011438949,1.6118650809353332,1.5467404001657068,1.6065399889903134,1.783049340320536,1.8989362252048363,1.8699641303275776,1.9027277206943065,1.9528886356266084,1.919367988930066,1.8675430942424809,1.901142906504402,2.0676468971689594,2.2992372822629035,2.554092038099355,2.6235666879096056,2.39395414550768,2.147570047363584,1.9528886356266084,1.6928077964118304,1.401358202655788,1.2029408401435924,1.1828105405758742,1.3109891614768783,1.4879711610423305,1.5952280744496858,1.6677981994346651
1.8754301298774394,2.103593910228313,2.2834750854149135,2.448286776901379,2.50372473696091,2.6462321352707723,2.839795386038943,2.836272299553317,2.618784417243999,2.3268952716943705,2.143056082481882,1.9101930822293314,1.5679327255699211,1.3449894464630043,1.2231614447726415,1.2798767226912573,1.4782486353993594,1.556402744454711,1.4999930305896338,1.58772185433351,1.7217249700232777,1.8541506951012443,2.167476252312209,2.430965182741573,2.6284016750630994,2.619528988089839,2.595890333586368,2.5988223744364936,2.428624121466187,2.1576350650259197,1.896028007516922,1.6600752339591422,1.510005001460273,1.410456388039329,1.3471742079760574,1.2065261558668001,1.1730013762438498,1.3008131617347793,1.4494096446994595,1.6877179468394516,2.143984632549234,2.588067021813726,2.851079621120392,2.9094160301326917,2.651881717677576,2.4494297271710357,2.3298870645035112,2.1878190198049503,2.1285853900415646,2.1768996878562947,2.0553610653328382,1.8062877326684803,1.6758643175371701,1.6845338511528165,1.6457112461642645,1.4806151300680248,1.2084425785655686,0.9632511248991665,1.0833489952389348,1.3496374816607069,1.6423528161273344,1.934368707506002,2.1941456094135,2.346184683825597,2.275504656325823,2.2813416861441316,2.297708768357212,2.3482842930167367,2.587603869813,2.774868623311561,2.7405219817515074,2.6653462882010395,2.568500550847662,2.418726732986827,2.175001052017631,2.1142624259797422,2.0730965301650945,1.7968076665363728,1.6013492316043405,1.6886344573329726,2.051649623100233,2.240164064544271,2.155952216665558,2.2491452232883473,2.3776530579956017,2.5743166063741105,2.805819741716955,2.9250073608203797,2.937148073678096,2.992749501092612,3.034761371022407,2.9981082840261313,3.043195282416032,3.2051411919964217,3.227248690163731,3.070429954486117,2.9200014744762024,2.751514426448245,2.4253077721345004,2.092024193564902,1.984018673412043,1.9424510941032909,1.8509693904817937,1.7934534148426244,1.837360130374877,1.9427579091825053,1.9985180548025547,1.8869012178235371,1.7708424015491513,1.63944178259945,1.5508263573719416,1.4872777212260957,1.5225871983888573,1.6453840472112482,1.868196055326945,2.0905788419006766,2.3372236736138587,2.49918913717973,2.3916040669383127,2.1620354384277696,1.889867639171363,1.6456411226656522,1.4188584251154033,1.1566269612862137,0.9849684682074987,1.124383892563005,1.3859794885298369,1.4955037724328308,1.5316615358374017
1.9823397391518154,2.1397223591698515,2.3440808797760857,2.4791240395838727,2.5384454806148327,2.7006961284892386,2.826749508623539,2.7675327078392127,2.6233523867984436,2.451419675497647,2.1565018587186233,1.8537456848284657,1.6481479964530656,1.44172912326337,1.2838512023620157,1.2198708261076623,1.299856403722154,1.351395358531242,1.2949222593652525,1.4485895994333045,1.5922313931441745,1.721860857010226,2.0486065588823683,2.3235123331148264,2.5334643670563173,2.593459165431936,2.505697344337559,2.407298848778923,2.322618200704353,2.0308004668381914,1.8682901175941014,1.7705186212405564,1.534558630544554,1.4107322908108357,1.409387359762086,1.2916459758855758,1.2440694776886052,1.480503157076835,1.7970578716715533,2.1193624323942424,2.5637191389719582,3.0442208757424156,3.226100157759705,3.08229526002804,2.763844073084606,2.582834084631367,2.4274935906197417,2.18018115710577,1.9738575951445076,1.9311644570938324,1.8690749689894268,1.7659684220310263,1.6690971191628463,1.5212543894898913,1.3563695357097723,1.26644121890297,1.0380114283796635,0.7907186479423163,0.9491480110524939,1.2483196289182041,1.4070321614836825,1.5828078915393273,1.9473561789504121,2.2393863642264065,2.2616224826968696,2.199555325194339,2.1765259160662347,2.296047406259614,2.5554120642409197,2.6590741491753733,2.770311421661284,2.879428606119909,2.7615226318554638,2.5928715549560466,2.360635409400671,2.267588231909475,2.0839001814623064,1.7323586222076859,1.6147067176329848,1.5993347417047337,1.8483627897169026,2.103792753121222,2.097336188963902,2.1830396888432424,2.4237622475826552,2.577469224107765,2.7622765833294745,3.015556054240906,3.0901279524288525,3.2513015456434613,3.272530435679312,3.2513303481355904,3.3661826636875025,3.410246380877682,3.4303262100234124,3.486403473104913,3.4294868419844415,3.0420439093992506,2.5268899339848203,2.1725859696586887,2.0256178596987007,1.9346650581476734,1.933664708289879,1.9182030858435157,1.881787016602853,1.9914604037739456,2.0036255095679434,1.7813645596828924,1.6728909226501807,1.53426409863823,1.3320143201234491,1.2090895776662833,1.3608557220411532,1.6315125093649387,1.8729877644238884,2.039252082515969,2.1605506237159853,2.2695309137610447,2.3520596325211582,2.1918621531223716,1.7824810856478437,1.4898418366635775,1.2697550909560902,0.9359703424173706,0.8303813971837901,1.13881856537297,1.5408472186998992,1.690895304328387,1.6993518250177257
2.0836448153301133,2.192476055781443,2.4125489617593407,2.5427336828432074,2.6221276202753425,2.783023163743687,2.8874827341941534,2.794940591226642,2.6096363229549455,2.3513686369531084,2.028201834652688,1.7238970478700721,1.5135271961256156,1.3509488538424803,1.318093666100768,1.2757622602663212,1.3050631808428548,1.3566883449460445,1.3268654122300534,1.4109725538013707,1.4767867768022878,1.5392254269985974,1.8013443563201224,2.0946166820995615,2.3214989992785506,2.3618877893221897,2.2646255718962722,2.18000102592363,2.0842128965933058,1.8333290118585013,1.7374039963722072,1.7445245372460154,1.6322390786531982,1.556610274337792,1.5616694717167123,1.4999606608163696,1.4922940451706312,1.7054724206559053,2.0354700378442288,2.4351771508508726,2.9049693481368455,3.353688327572064,3.477318136539535,3.273281150175996,2.902273408449264,2.669927932333169,2.457803126906885,2.154670555311388,1.8949238307856229,1.7612137482486467,1.6570280822316434,1.594524791579948,1.584708030260321,1.4565451648509977,1.294164410306298,1.2147764844034836,1.0301192812932636,0.8265485517862533,0.9524080435847767,1.2490641337032824,1.4428668217024665,1.6234554085564146,1.9657864615851055,2.289966050713922,2.370880409608432,2.3102943013542654,2.2122527651218205,2.210022107894532,2.4464788920341887,2.60867507281052,2.8230471992912474,2.999023820123416,2.8869543141608047,2.7263722290070294,2.442698003425779,2.274443918674182,2.038509650387291,1.6726579924042015,1.5112438719560108,1.386052749914633,1.5820838986207768,1.9350267077879495,2.136696313855736,2.267179613067585,2.376302875116292,2.454647833712379,2.691977693394697,3.0732592047909377,3.21954864777254,3.371329193393475,3.3491115058755434,3.3676938696736114,3.596934754229854,3.6366138865402453,3.6074509668950365,3.6518172423740944,3.5710588859684895,3.123216995267209,2.607460677827016,2.3626288919780367,2.255391235282736,2.058468291065566,1.8620480031846571,1.799559212870169,1.7657723536901113,1.882559448574967,1.9151045471009598,1.7120134765275214,1.5552112395251578,1.4631046351599553,1.3028280810293376,1.17368041481402,1.3064848744967739,1.5714836896970117,1.7096650990227698,1.81592800440546,1.9502679964337428,2.1188635415214017,2.2445290293778153,2.1639910186430735,1.7617589807458642,1.3673609894950838,1.005334538633952,0.7057413870474268,0.7678544898097641,1.1755126100415396,1.6214930405978394,1.8576867460113669,1.9363776730744064
2.1387121249705783,2.218059473050479,2.3790507385626194,2.413167356550212,2.488198410062798,2.668521300532932,2.8094058501693038,2.7421497189213677,2.4620195541176035,2.0826207001132744,1.8911869345157506,1.7552299809632703,1.527136703960389,1.333820949836166,1.2813199521535115,1.3009004280010694,1.3358070005778335,1.3939756152552532,1.4391244465181652,1.4006597422216591,1.3987095294432486,1.5128024104779239,1.712574365425277,1.8801276032977268,2.103289155419106,2.1054678228268866,2.004983343109225,2.010708808687307,1.919501016724669,1.7899740936116666,1.6798657830291093,1.6904127304637022,1.7437188106499726,1.7069133545066884,1.8003069216021927,1.8498539627770068,1.9027907013730532,2.0489301988118442,2.236562233630622,2.6769601664836893,3.1383832249529466,3.441952904093845,3.5100326148586904,3.368531520132777,3.0141023871782933,2.6613442611926255,2.333838191694986,2.0604325252406612,1.886367843233056,1.8357455062662267,1.7297644326084112,1.636793505751481,1.5866216784070954,1.464665717021196,1.3136962654331978,1.2422146236198008,1.1311016114267678,0.9242853827550628,0.9029398294139374,1.140840553169037,1.5344833212761433,1.8240805464995427,2.0603986856154477,2.3450794542509077,2.3801817978951587,2.2846865076641385,2.1649696262526525,2.131184616773924,2.3469726235615354,2.625998384550132,2.8789794590006763,3.0013200261415647,2.9075032407758203,2.8168155555125427,2.515832419437745,2.276623031992104,1.9958836589721514,1.607006410998747,1.4510165727293645,1.3073268189054539,1.4925292875432723,1.8645199308290976,2.1806289830097665,2.3991187428319947,2.3926559524478783,2.446531674582838,2.7429699954001894,3.0962294565068826,3.2529948150889916,3.4895252404628243,3.500194449852252,3.4961724064330233,3.6800805465656032,3.6850315364167545,3.601617801631291,3.542590397050942,3.371375568048233,3.0813852069739815,2.7982266516990597,2.5975416544481784,2.4942054802818867,2.337065887484386,1.9820773272265004,1.7765642213989437,1.7964721439273743,1.9203648004083083,1.952616883683718,1.7575530241658854,1.4823913718303303,1.404590192394702,1.3224810255325505,1.2652334960564038,1.3690574959179405,1.4163651268145323,1.4385294042065775,1.6381661492897908,1.869875352921362,1.9657537842164192,1.9456702025097607,1.823653067310169,1.5241552166300834,1.1677206771307354,0.8007008254094,0.5924166605505411,0.8606012229564582,1.293956583149789,1.6370083023183561,1.8817732429340253,2.0450789224617756
2.064874698589517,2.1275876743566458,2.229223411484756,2.1999477096040256,2.252770637893946,2.4302251700882946,2.5543470326397637,2.4563354219323976,2.1762569827050946,1.8808761790772488,1.8305121149161303,1.8098122890060557,1.615803425369407,1.4141062781571612,1.297648983367816,1.3300540991396312,1.3370533029092697,1.311312000419618,1.3763577385789365,1.4303673328476105,1.4737730187898606,1.5768268822907547,1.6501012149961365,1.6751219266964685,1.8507300853723043,1.839123473773448,1.722916210709784,1.7529210417332917,1.7583524584743704,1.8273533617892266,1.7693238463032959,1.7774551828928522,1.8962731177158514,1.8940808376623501,2.0738835698231535,2.191370875752325,2.303252851727479,2.4615200026371458,2.4972998984844272,2.7280213698637015,3.0739036935827055,3.3693091874202605,3.5636978674066704,3.4906896274496733,3.163947022175739,2.7574456919432095,2.383314201035714,2.1565495050430457,2.0557119800993275,1.9663828942692885,1.810308438357283,1.7138122615247788,1.6527390212133657,1.500556363735575,1.3300284675640668,1.257977051680457,1.174273442272374,0.9592034499043738,0.8936695227156205,1.1179192524775594,1.6065399889903134,1.9867261902481235,2.2377967771464644,2.4686455145832764,2.4211731281468456,2.2820777021213234,2.132833757630596,2.055269637238557,2.2507130763776693,2.5018096024469965,2.717164680032388,2.877550564723725,2.934103531350687,2.8622262516350863,2.4814744484570483,2.1894655017159614,1.9009835679470277,1.5300655408635688,1.4582642970847584,1.4611571308727769,1.708135594205652,1.9811829450237717,2.131639610270572,2.381576340575993,2.5209042344221624,2.6664300149977747,2.9679435529287743,3.2476434970215515,3.366860050738629,3.5260756029745575,3.5120347844262283,3.4767360091068724,3.5592749672850594,3.521263737087681,3.5452983597971643,3.4941085361139983,3.2420872584711202,3.013804056778168,2.883991885360268,2.6203134596357844,2.482802071586216,2.4450391968226888,2.168256198695974,1.896333100887533,1.863508747006374,1.9506743493398944,2.000253611393209,1.8573959382804872,1.5392768222712496,1.437758144812985,1.361786914538976,1.3278789824977957,1.3927427893192168,1.274140072200449,1.241862651881123,1.511776651999636,1.8250842159106155,1.9299549031255263,1.8429172855183777,1.673899175026601,1.4229751996670008,1.1411226986825305,0.8705612040075893,0.7241464437609211,0.928354725679714,1.2771051434314562,1.614771820513703,1.9466391817633124,2.097340862762797
1.9918256950137139,2.0361202243766985,2.036290363868621,2.0124034117344656,2.1088085650948543,2.2168639053840775,2.2642100827351586,2.1904590720880797,1.9876514104402032,1.86352470068034,1.8768255561209624,1.8484139785496743,1.6640283099430893,1.4812696270651997,1.4129931543214407,1.4047559058155865,1.3558927751921228,1.319993177244525,1.3567814245593697,1.480668474133149,1.5233705469018526,1.5510777846312147,1.5771462860738827,1.5225572068030164,1.5315399840357564,1.4827548711719358,1.407012673558962,1.477049962877155,1.6207895595458164,1.8325853410905404,1.8756623004246584,1.9589979085534417,2.155000281088541,2.206590449503187,2.3591934350928905,2.434138444463279,2.5007730100037793,2.6255380071013996,2.6279060872283475,2.7025391576816875,2.9024061245196475,3.1924406141827566,3.527253862721377,3.5358635618020555,3.1886723762102247,2.7904980710587868,2.4621272992200405,2.2452647811119597,2.165710167392025,2.017191351239191,1.8647622912488186,1.8198675049028645,1.8050866158980905,1.6577360884458472,1.3992481558642897,1.273899214663058,1.1832935768658912,1.0325119360235875,1.0743050787711825,1.3170174702308737,1.7679161740460612,2.1367949425730495,2.3455586590167425,2.5067572562296783,2.45653026814922,2.3593044502030343,2.182196571856041,1.949083482848793,2.066134105724568,2.253782622703406,2.4119904510490087,2.6481877320012663,2.869622876947496,2.7377028387432363,2.3617263698508197,2.06034465616992,1.753392286177334,1.452663335398613,1.4667703798606104,1.6252500812712523,1.948140725330814,2.182625487866983,2.2456074713136096,2.4701328726343887,2.6692978447874656,2.8005599838653197,3.0527958268624062,3.345077043033103,3.442863881998568,3.437839300458812,3.3461391679607417,3.3280042997628616,3.410339526551769,3.364657188576852,3.4785014169042485,3.423033894653828,3.1048893617665017,2.8815113698167982,2.829281551561184,2.602912856804909,2.4233204992687405,2.381458587268149,2.2189389069414602,1.992598263236149,1.9189389800211778,1.9322245651038386,1.9989585727347814,2.021115971550008,1.7755855642437934,1.5917505368592957,1.4600326445860332,1.3876881501328582,1.3600993263189576,1.2023239647502417,1.1898282413588064,1.4626705168640244,1.7810537603139842,1.903012194849652,1.830897315217975,1.6695579590369107,1.3972626005783355,1.1362675629966985,0.9716187773487425,0.8637953268485007,0.9291410469269887,1.2172744399880588,1.6244707954951052,1.9930270471255673,2.0199291734497304
1.8946907436453346,2.0064875879425634,1.9651475136397307,1.9558767135500994,2.0637745309206976,2.0157250335407,1.9839062235447293,2.041181031986687,1.9086103613398153,1.8684028089960754,1.8982617861152038,1.890728893966466,1.7591459142839156,1.546931084554538,1.5029384487440165,1.3883461813807876,1.3086946730385354,1.430951475133507,1.4598891275811012,1.558871699364872,1.5266190188008268,1.4587148975407493,1.5145595276496988,1.455777604860064,1.3518541505216917,1.284010805162437,1.290463950675336,1.4521469384239052,1.7121553089830284,1.936703352629902,2.032959382078204,2.133869458253529,2.2830856572243157,2.378051272267514,2.498422700221746,2.489736733991611,2.4019778526011324,2.427173261985949,2.547753441947355,2.7355193323846567,2.8425170894236125,2.9956079502541324,3.3159832229446993,3.4420875359263197,3.111269378016128,2.7724295278657176,2.5241854063982094,2.255514207390759,2.144754422090877,2.040346915778276,2.0108931388566162,1.9924131279513058,1.9169621426913774,1.842829573341946,1.6016814181448698,1.4617621813897719,1.3222077982218954,1.1869336569606013,1.3629411281685135,1.5877075521785882,1.9553509403340685,2.2715135293431006,2.344759720163971,2.3968889609097994,2.266459881068168,2.2365766348766867,2.200265395807348,1.9847141115663212,1.9835223134921376,2.143774030840731,2.2189630356346943,2.3629095841547714,2.507526533800418,2.304119734073725,2.15301895369134,1.9298512125023426,1.6487103056571992,1.5550707282848863,1.6108465891408394,1.7586251903293122,2.080279713156245,2.3210109423706395,2.3984110669215997,2.5681328566476846,2.6910290608557683,2.7069323965212666,2.8454647206135144,3.1218655242030446,3.2261273747935517,3.2489673546872986,3.162699530750591,3.174065152690533,3.321972687970778,3.34115369439195,3.435164368093471,3.2676482811419185,2.890632247072005,2.731082889806884,2.7373278778594647,2.7039496870668684,2.5159547639685313,2.3932741160260833,2.356337694422602,2.259513691059845,2.244652166637743,2.152483184398245,2.085437844783502,2.1391885551844187,2.017398633394415,1.8054753339354992,1.6268087188843077,1.4956846467985403,1.3958968603896302,1.308723607652188,1.3020369373464542,1.506372254110119,1.75611311425691,1.7974138400863175,1.734058183940774,1.6614132946886686,1.391033136804769,1.134756224889066,1.071634902780689,0.9924747543844362,1.067520176112706,1.3909256559453793,1.7667769396942536,1.9149788293425256,1.7617682787980826
1.6630314530480732,1.926756084146613,2.04085511296093,1.99815514175021,1.963565216984169,1.8540031318746544,1.823969399267875,1.8617126457275632,1.713121926564347,1.6649829870417192,1.754202967330509,1.8594169186499374,1.82503756049762,1.5861031014272493,1.4837591268722694,1.3415775402394268,1.262471099242488,1.4183197326336001,1.4804758079214648,1.6396491473306267,1.609463342850267,1.4616098452731443,1.4186939668489922,1.3807225712909574,1.385476303707482,1.337153649206389,1.3176595147744563,1.5053561074726678,1.8114313887313156,2.0377972511324303,2.1240338696167993,2.1530970375117446,2.16282159452314,2.256192453231788,2.425316855489243,2.404254801907227,2.245084534323487,2.224569744607113,2.3851477835392303,2.6383952149812067,2.7633696246936186,2.899096017929948,3.200445328807202,3.3581375198768573,3.1446002032425397,2.8957404615361546,2.6857386508106744,2.404853873925282,2.2678178260869855,2.1070662290185243,2.094147667206229,2.086196007631075,1.9657454120470652,1.9236093705935406,1.8235131258439676,1.7585842987177804,1.607969411753359,1.4120221602146552,1.5333586368071144,1.7008049140486732,2.0316517175566844,2.3495493896348947,2.4218998956173903,2.3966294742375913,2.12027096605078,2.0595319849362967,2.160379047402494,2.156882930222858,2.1261952621353783,2.1731420361208356,2.1314864979399943,2.0898535029941048,2.0258807237273544,1.877820340359578,1.8979762715028605,1.7988102985292431,1.6804158214467453,1.8107657770109737,1.8882965243319292,1.9086645848388306,2.144537974004958,2.313082263682984,2.2549969516261483,2.357249564147609,2.518608755072393,2.5596516457486365,2.6464025720361226,2.825896333885359,2.8870671459418973,2.9388678334890934,2.89286351536134,2.9369477774484283,3.1503403549537214,3.256221883301154,3.395302511716041,3.216390282752612,2.8041947130383265,2.5919446564077386,2.5862323162772594,2.6822317492116805,2.5987311445244976,2.5585186376236253,2.6493250340757926,2.6279372018471383,2.613065933462676,2.463390182802679,2.2658490172041383,2.1937062888325802,2.1248309092226703,2.0467398221340414,1.8573285893338691,1.6432868492379131,1.538735157055167,1.5145680494879663,1.4259659024735725,1.519485348350618,1.7122168115522305,1.7402943198512788,1.6967560664753591,1.748307523283611,1.579803976580403,1.3515608407394604,1.255975476659775,1.1686337029190732,1.261462417471116,1.5432778583682372,1.7997471722525775,1.8215529709209115,1.640845375604646
1.487969905887857,1.828710786579545,1.9453832521080485,1.9545228819749265,1.821846511915809,1.7171582886536876,1.7623943366373183,1.746585319224428,1.545176246479044,1.5468419685869186,1.719346733054209,1.806962295622041,1.794795719976094,1.713631634886926,1.6030529386502292,1.3868927785612217,1.2303255362036427,1.353321095797419,1.505406710016179,1.6241426056306627,1.5016266801976723,1.3772967923074093,1.4344357839519781,1.4754978652795139,1.5032984798956293,1.3498728561548712,1.1995837643522784,1.379055594028609,1.701157150030398,1.8076874941494938,1.8686235923194852,1.9829493292817828,1.9953210112066138,2.0593098060792943,2.209837137761593,2.3079435621772806,2.213021960116608,2.0557456132846608,2.1451526693931706,2.3942132358153176,2.682892224707795,2.908364871291506,3.100583785557783,3.2327119151615986,3.114900209604191,2.889010125066895,2.6516762026477285,2.4547902276843607,2.43248005509996,2.278310752333646,2.256753870615638,2.2683536779560325,2.1824894026977497,2.1805203295718556,2.0146895723880287,1.824427935272873,1.7381396159848281,1.635589977763287,1.5844632421076053,1.7339675981212055,1.9896814163612293,2.280770425706779,2.4537260879034886,2.322424642672385,2.078730712156812,1.9792180068886842,2.007800549711417,2.181953600374274,2.2348112270793106,2.2421044012387976,2.097702330735978,1.9013990116913675,1.7132041887279332,1.666040619837558,1.8233983039824269,1.8654242035665016,1.827510561629439,1.933570134051819,2.0181978736494126,1.9245674890449787,2.067304182194524,2.2587463292511964,2.126580379861271,2.0601117176663455,2.177580741279699,2.3893451852505607,2.573108685345259,2.70586584552259,2.733080302999575,2.6546337429518947,2.6849529901710176,2.816610106543457,2.9335020481148275,3.0560863134058622,3.295968265467021,3.171915271259691,2.7412573040907002,2.465624787160483,2.452097756186772,2.585692335610602,2.559545882469053,2.6298068535265777,2.827490049762911,2.8114813471823994,2.8363138517724664,2.701601094864641,2.4660294093262864,2.3916721095229296,2.336730397905768,2.2437114283598456,1.9909461166148166,1.7297198415942205,1.58582373046575,1.5405004657614008,1.5152554447444997,1.6162498970277877,1.646216511900615,1.5747199073246785,1.6412357616762892,1.653121843327787,1.5701877757334908,1.437439566789379,1.2444627374033852,1.1981437718673509,1.3140217468064082,1.4041827296161427,1.486722117189281,1.6680127317584932,1.6807109974454963
1.361786914538976,1.695054787162465,1.761872902529526,1.8490206558129276,1.822411191049771,1.7999179888673082,1.8631499544940442,1.7566255475859118,1.509704094690439,1.4799344399788104,1.6573377750827922,1.7476454788444045,1.817795938505094,1.8855331861521583,1.8220186992913463,1.5759458629414915,1.364170056519606,1.4208166312459871,1.548339367873819,1.5628119925914177,1.361786914538976,1.2458124908877437,1.3536251074230563,1.4399162838390471,1.4829580410447403,1.2700045363925103,1.0377545180771641,1.1798411093345904,1.4775482592031395,1.5715994611820028,1.6573377750827922,1.8666691103643456,1.9916649278923664,2.0899973585604408,2.1622759161157803,2.2790336222192464,2.251901080086849,2.0687299716156726,2.0756770534442794,2.215491608664767,2.543990356714241,2.8141435958814816,2.9414374650001824,3.041440774644347,2.8703538392764125,2.625382235825161,2.415849093174014,2.3433047649165033,2.483386048720208,2.5010117866271746,2.543990356714241,2.539462684224472,2.394068199412865,2.3544099423031914,2.1762678001548332,1.9326849652609575,1.8052363095842472,1.630727311150614,1.487611063829956,1.7020598373095195,1.9528886356266084,2.1783131404301836,2.3197500075804722,2.1698323258957064,2.1588757687077966,2.126062958944756,2.0189312513249313,2.1313614449179754,2.2258736519228073,2.1715190057802505,1.9528886356266084,1.7905499783023429,1.735590199066839,1.705034239623126,1.749861685280057,1.7797143123084609,1.7423998084502152,1.7508500203368056,1.8313959005597924,1.7900353484530123,1.9528886356266084,2.2303112010183397,2.199922144089223,2.072331298816013,2.059116091153017,2.2790336222192464,2.4679610260002605,2.5341582692978846,2.555604102875367,2.458899834643307,2.543990356714241,2.738250350336735,2.824844052011223,2.889325631265079,3.0137031159341925,2.870135310276498,2.513951669550329,2.3466075387616474,2.398229664069796,2.5519358148353843,2.543990356714241,2.666091519654497,2.904609449106756,2.879461900743838,2.8638473827287707,2.717164680032388,2.50928989371418,2.5002991561596475,2.440258874949554,2.264176490837802,1.9528886356266084,1.7070005381970261,1.5759835175756969,1.4573576791903118,1.4039770164040102,1.4841634517646447,1.4408898873459224,1.351738544188605,1.4692824724482032,1.4194669107920097,1.361786914538976,1.333693914991294,1.2024545668762487,1.197884153073619,1.310639898229433,1.3005986624413322,1.2533979178572743,1.427847345998987,1.5591866110162
1.2469357880807757,1.5829575852254842,1.649979101678016,1.7558952623798032,1.8362366184843693,1.9208880986682217,1.9568054045126702,1.7673320317601646,1.5581474422032744,1.497152582985694,1.6264554259303947,1.7509651642445598,1.92278368538985,2.0631228827938735,1.9832568813513707,1.7844879785598478,1.6244825543106993,1.60294509445665,1.6152731556347286,1.4661224889396118,1.234858559615114,1.174028687150039,1.301974047501255,1.376944159961114,1.4391768987630056,1.2299213764631716,1.0184492513631143,1.1474238383826105,1.3373722442670655,1.4291883464324118,1.4917228507940405,1.6493453807904157,1.894007163397793,2.133059503768733,2.264817808713005,2.288449196532682,2.189289350694718,2.000441488199665,1.9741114047200017,2.1114380476561014,2.4027981621103347,2.631931499746426,2.7666930755571943,2.8636889029612993,2.6189761916353995,2.4099441198622316,2.317322836102127,2.3080005065539213,2.5144921787030805,2.715335457539148,2.8749955987017475,2.8857567646715503,2.677679369997012,2.522068225044441,2.320512646044655,2.1228495322798975,1.9273502759258927,1.5643491934872809,1.3835612022239487,1.693967823388403,1.9906689586888366,2.1301517402485564,2.2013871736028596,2.1489911134402666,2.251096856373136,2.221169927502938,2.106312261029323,2.161845001766795,2.1831866740381667,2.113544708833559,1.9114845329626355,1.7871121267145822,1.8152091477111367,1.7595914941220125,1.6848090933167055,1.666109389090554,1.6552934257188683,1.6270142999749166,1.6391767798536345,1.687967243639158,1.9404357103190015,2.2034377491935797,2.2079026144141016,2.1596172181826434,2.083683650800435,2.2014218885331664,2.303220118620025,2.265622461821669,2.295150565357908,2.294467563142032,2.344834302764002,2.487987180777058,2.674252666162799,2.7435609749749283,2.662099599942633,2.4715127167957305,2.2975800159325344,2.3262805102453967,2.421570483628855,2.5425868297698067,2.599204535943297,2.7446227035379964,2.921238858604801,2.9388410128198177,2.898812353018934,2.798442868572313,2.6521009072851083,2.63310619221211,2.585618743921997,2.34319378283674,1.9422203779250302,1.6593095236695379,1.5431452083586152,1.3950755929993826,1.3009513608483894,1.3396183101670354,1.3319920576467346,1.2627618987157723,1.2815600169617611,1.1559658251824814,1.120626620676926,1.148573890184157,1.1298990413196193,1.1732180555424352,1.2422292891089124,1.2567931107081258,1.2005767897231123,1.2064160325769397,1.3207322650471387
1.313326193045797,1.6687221582790748,1.7622047587662466,1.8207167490257194,1.8178796457478439,1.9314484296002683,1.9288343391965121,1.7186049863059345,1.65060397042354,1.6379882146279798,1.701580566482923,1.7782380854957058,1.9003698221822658,2.054302994884453,1.9460528992119546,1.879525178696012,1.8215932597279922,1.6635917143685923,1.5700726318257365,1.3268720843669917,1.14566127119799,1.2110824987271742,1.3669171932975543,1.3794087548609986,1.3912684452381718,1.1767543541804142,1.0133585430008325,1.1152819747464242,1.1707816025270619,1.3213981575257179,1.3610303866952569,1.3640917084561541,1.6637776093521957,2.025337093203609,2.249937754247228,2.1341951543242152,1.9463243232702534,1.838062001195832,1.8274966393238972,1.984684600985402,2.178358342506421,2.303166345159949,2.4737836545725047,2.63652417602577,2.4814711123885793,2.405214730836417,2.492405423614965,2.5350397841028607,2.6970843224005634,2.9336043762347996,3.1758355811058028,3.256239587585307,3.077019251229011,2.807921596973994,2.44931154446824,2.2729666018588572,2.141039643789803,1.768672767950542,1.5220506859121925,1.740729016178875,1.987616963881741,2.0602331125736817,2.17284894103608,2.267782120245252,2.3005471680775376,2.164296797394088,2.133666668230105,2.1943565579410023,2.044563954051041,1.9956564429820647,1.882637350728277,1.7344321373979288,1.7267699973687998,1.6893838671296117,1.664297771790324,1.6411874712594399,1.6686625714719638,1.649468881384533,1.5806983732339233,1.6577390611801266,1.987314422108053,2.166082419784564,2.1225101286011454,2.190131707983159,2.1233880265794154,2.153417861601251,2.2348427050322908,2.2054960208630456,2.2273329836957414,2.2465516777815,2.1510447773715997,2.060741103316455,2.2125953562323275,2.385959571210165,2.382217493299292,2.3158780211815904,2.336746351579734,2.417349002769862,2.4751344319986703,2.484490089201186,2.6259691196326704,2.7926876550074486,2.8766293474009283,2.994736212441897,3.0107719338739702,3.0639053972897514,3.0241369508294556,2.9258308082157654,2.903695432406992,2.6619567105149375,2.1610322562148148,1.7483506279306618,1.5601067383364275,1.4196586191226483,1.34496606095334,1.3875959953701975,1.4439594006412781,1.295399350186711,1.0999643337947238,0.934992114657172,1.0049317661694779,1.03824349983574,1.0336712363317806,1.138483505189304,1.093365458241374,1.1339482357119326,1.2114171625462697,1.1815900680022875,1.2308273998107624
1.5037157526973104,1.8665711587698404,2.0655074368232857,2.139233426956847,2.0264926858515486,2.022592697947274,1.9543137071530725,1.757691619644066,1.7465408603317611,1.7269233243968536,1.739219379135858,1.754098211477542,1.7988950379713955,1.9218116260532812,1.8924903463757317,1.889502661720213,1.8170740512733246,1.5785996228326868,1.4597430342064606,1.3435007671966568,1.2498495300998924,1.276162918786419,1.315664744012236,1.284997092335571,1.2925609174360049,1.0874345230502183,0.889496200151953,0.9120375193417652,0.9850388229187772,1.3241151045355404,1.4832253559172177,1.4616414553476484,1.6174019636825678,1.8595473473664448,1.9599871813633474,1.8210713301644867,1.7638868969734196,1.8980007759166773,1.9199180128969104,1.8838071381824002,1.9216789120472964,1.9826663869103507,2.15643956342028,2.397828543124366,2.424767725407081,2.4510923444231074,2.612446349578093,2.7465539238474,2.910004895763054,3.0632058138226728,3.2785430219720078,3.356122930886108,3.159140573271327,2.933218317143052,2.6686377656559217,2.5187797863845995,2.4026396162821015,2.0844090227373875,1.7820337717147505,1.7812447089458625,1.9074745084732505,1.9879968462922637,2.1541529362125873,2.2508206893585823,2.2581954155284674,2.138713396640242,2.1464446692565566,2.185072081209287,1.9677480089451556,1.8271076240130604,1.6839674792118344,1.5486754189689118,1.5903333023067956,1.5932225357832979,1.5487785067876443,1.4529681067230102,1.4497794528438135,1.501816175492792,1.5241459020626746,1.6505904279673784,1.9850148469910545,2.1900355235140307,2.1866740546820598,2.2310645249151135,2.150038539848413,2.1513643297914418,2.2303660644809846,2.2417660380170434,2.2152762340662266,2.1591755028991098,1.9946089670283471,1.7681027461524725,1.7317015653559926,1.920914558067707,2.1439454254871273,2.285276166023642,2.3908788849260505,2.4527025754911005,2.5228018298038277,2.5100308972788845,2.597440515421918,2.7286864696131397,2.8512449712070866,3.0269268289202653,3.076618923012722,3.1822770338638695,3.1785753851391956,3.0385045059054687,3.006913985386963,2.8822967001526467,2.440353540021162,2.0001193263797337,1.7546900828725651,1.5704161808172892,1.3854394418024176,1.4013307213788941,1.5000215027779542,1.3446356910837591,1.094606806015678,1.032999002020072,1.211315561094677,1.2809747186125338,1.2869230277840333,1.3980932485967539,1.295963509092174,1.2735584732538803,1.3200902865643178,1.2734350717509055,1.291108901892436
1.6683938362931088,1.934813769179999,2.279740009944787,2.4086163646115404,2.3184904270359215,2.1331891314985043,1.9860514786578487,1.9002897193798296,1.8626432932241015,1.9525766042309445,1.9816638673694122,1.9037737102808845,1.9147515885796533,1.9992534597176999,2.000197521677674,1.8912700389540493,1.766314596937859,1.620713556639407,1.4659598803745302,1.3979039184535387,1.2936825631099926,1.271447369490194,1.3915371143562654,1.3533452740362246,1.1735093174410518,0.9302260288781977,0.7524784511446645,0.731775140529407,0.8641229221660874,1.2260103151237063,1.5172841707382667,1.6559307469179847,1.6547698611515091,1.6842250501219516,1.7213773913252575,1.65921185283327,1.7179992586661315,1.9835162813188292,1.9780216630083318,1.834448667452041,1.8768398252455032,2.0240797256945777,2.180567579531707,2.3174647676487767,2.400003824918106,2.5179925402866603,2.66066991293654,2.7912293636915124,2.954100982726498,2.9830471570123596,3.1252561588613346,3.2305984992712506,3.099720635644577,2.980453941809321,2.9034696367232833,2.6886229957908063,2.4485350332440876,2.240919271172755,1.9905340832573029,1.8311593947750826,1.8870829055623757,1.9938849947537847,2.118447821147622,2.16682197001251,2.0596874093935362,2.061696919963225,2.2144922579759947,2.2529882090128153,2.075283323046572,1.9149370004939363,1.720164713921559,1.5287249698250955,1.5547807545711239,1.6304010700786433,1.6150649651440299,1.393347443471641,1.2231349544071743,1.2431810265036436,1.4170025140744105,1.742011668444472,2.0603080997958787,2.272595571590411,2.2771080831353547,2.212822489646462,2.2233621538820705,2.198046662547558,2.1463383609756885,2.232718653359299,2.214485866597294,2.001898681255437,1.7025918906847655,1.444396359549965,1.4148408407975939,1.6195229435301377,1.83994825889926,2.1078410391780613,2.33583983277643,2.4445434438360323,2.5845689723568084,2.5378436670751645,2.4648770453980786,2.520177103617428,2.7116536270430034,2.9110956910612984,2.984801730844807,3.0680682822530603,3.1157083969636097,3.0762027402136103,3.0190288024260683,2.94193662011607,2.5571174888666146,2.1293621985391455,1.8969873501568513,1.721751344782412,1.6096642996875523,1.553140597978052,1.5868966232975563,1.582361882306279,1.4366266230551135,1.429347420746739,1.5029046256339933,1.5973882613593626,1.7872706395124345,1.873713185906412,1.7756484540889927,1.618545079104129,1.4762556152473258,1.3649233473859987,1.3165635006760328
1.7185260436956267,1.8911376655738674,2.217913627403695,2.395159424106061,2.4423454371402453,2.2294376630503465,2.050855407591927,2.0327824300702244,1.994906170266725,2.1837432029256463,2.2484394961704246,2.137165824204782,2.1530892753722375,2.238530018571662,2.2941307523481793,2.142787363818217,1.9974689727465667,1.9199778164658958,1.7264739130345743,1.5916773085048805,1.4229751996670008,1.3124085430041357,1.3678703840290445,1.3022330056873692,1.1256788816758612,0.9247946451675,0.7841432239593927,0.7691724020069524,0.8895372238850083,1.01964534751561,1.2498009093792344,1.5240447630364142,1.6031708901403587,1.6279794477042862,1.8015643716871768,1.847236511531996,1.8891331673644776,2.067310994710581,2.0445972321597794,2.001309534866837,2.136453424949921,2.300878694010449,2.35329754513585,2.373134865225146,2.3956851356481774,2.5164402445067338,2.5769867163038422,2.5730911792433915,2.7164591510967506,2.846722649639021,3.0433096335946455,3.1851781582774894,3.128829253343616,3.066532237420528,2.992523507226618,2.7066479388811118,2.362424995436853,2.122176620845381,1.9238725463464137,1.8966700644468975,2.003686438234278,2.0455273842006045,2.033044278414666,2.062629053826903,1.9907194125956338,2.1178236460400965,2.305729568777147,2.2520776274726626,2.13004551454364,2.006959748979675,1.7797143123084609,1.5542485360439737,1.5783046615314114,1.6308038755734982,1.5339915649655733,1.222187709144243,1.039340769088637,1.1446717470475298,1.364425711667632,1.652704834769153,1.9020908330189392,2.1475534991427625,2.2339460623128704,2.1803184478839053,2.293442498301743,2.2864431293802,2.1301545643461215,2.152362276689027,2.1331848375489897,1.9626968885265603,1.6371341150391354,1.3330734723168083,1.2827876901583801,1.4702984539337498,1.662771933345484,1.9737326907592025,2.2831758631945043,2.4760895715226323,2.664704441839742,2.5886850202400264,2.432004252463356,2.364813025913853,2.3994412514709254,2.5757341382000383,2.8073377519615255,2.9641951331847713,3.0681512545698357,3.150243774120023,3.1191233419822284,2.961229731649955,2.543990356714241,2.0917714285752034,1.8049192179277809,1.6454511649452004,1.7076897336093175,1.6804592729127954,1.6513503579403286,1.692713511189603,1.6567498343030944,1.729439859570675,1.7693238463032959,1.8643040772900343,2.112518553990701,2.193291906189226,2.175671172384963,1.9891131864613225,1.7689627086339235,1.6532711736797543,1.5522202394451583
1.7461827119118585,1.8778711988885408,2.169364450550514,2.4115803458399787,2.5667119557229063,2.3843273419085045,2.154435362484318,2.1133456512431743,2.1588918710184766,2.3617103831464727,2.4008016737683087,2.300817521745056,2.3300520842863977,2.423105537549961,2.5356448346198555,2.4423008791564356,2.2701083508796223,2.0838952681931504,1.8741724816101704,1.7684969802634887,1.601859286745919,1.431802370775406,1.3415049394622482,1.196284822031317,1.1324720419295582,1.0302708907415117,0.9047714961553628,0.8347201358949142,0.8707912275800509,0.9040318138058933,1.035990761798832,1.2928799909153241,1.517716208120202,1.6299184631835777,1.8694304254332876,1.9384449259108738,1.9832869699639553,2.2055593070728152,2.2543862198836417,2.236145456284654,2.323211492405754,2.4060820095472333,2.376567415436775,2.364552151965648,2.356961506195938,2.414703170170078,2.444852608201087,2.4467960497514167,2.559269418181071,2.7570320194530447,2.9269864091213003,3.006331197346683,3.019900209934495,3.041102147179546,2.961313496695872,2.661550106526281,2.2954704645967494,2.042602725640606,1.9094514758601755,1.9207346126814597,2.0178435237233114,2.0217564099913203,1.9115174229643987,1.9148083843195798,1.9606355589663644,2.1851160281310507,2.379633757815566,2.313748255252706,2.2189414667959784,1.9965929987879831,1.7548081995145988,1.5753325217988954,1.5678509423468574,1.5245880467411599,1.2817506022594498,0.9877278922871352,0.8812053103075466,1.0087610442858794,1.2466440637568266,1.4824934026768746,1.7337366166676984,1.9977160977987298,2.0946837502879423,2.1424434514924746,2.32410235480852,2.3471600049122783,2.259200959413655,2.2906909024223756,2.17962423185372,2.0683739784281223,1.7857535045729571,1.3944381066483618,1.1772476298885046,1.2762544790022234,1.5128179677873193,1.867858080212166,2.1941640238508415,2.4297589792925276,2.6334678088220054,2.5482206236545486,2.3409164371660753,2.199422576093575,2.162408632186164,2.3228048884170978,2.637659430216681,2.823072500563003,2.9519980044365086,3.0943934958159427,3.0653217400219677,2.8838984093823723,2.4734365713301973,1.9929708005157232,1.681300160349287,1.5793120881483096,1.6745366944080027,1.6519218495903474,1.6240393856904067,1.6690273589984237,1.704441658074914,1.8907600374868399,1.9960152107216087,2.128309718482724,2.4051406767224797,2.4760387047360743,2.407959588518085,2.2287379639769345,2.0465521187370848,1.9306886957452047,1.8018683337672425
1.8556874335717752,1.961693408007978,2.2614908566290555,2.560516447180887,2.704571517017351,2.516853520632328,2.25646181598788,2.2041695372820187,2.334072079822011,2.4965703894922697,2.479377712909046,2.4204582516134185,2.4935649881662054,2.570417303850239,2.545402273375419,2.4247583778092916,2.249668457551898,1.9932644818897394,1.8066184493570603,1.7612205029615369,1.6208779488450564,1.5309315644199115,1.5060370948353101,1.2677619717129138,1.1173745154360548,1.0376029086289162,0.9727110259837455,0.8697846597530556,0.7923728094168823,0.9451066778908305,1.0565676981768353,1.2161832483252442,1.5134625887006106,1.6371410844495016,1.8054556808588744,1.8233649185249503,1.8418143515551595,2.1435791350783373,2.350445569928983,2.402171641845767,2.4002157478418447,2.395513807062543,2.3637200506104707,2.3526393817663975,2.3564282306965993,2.353237495903407,2.391094705434733,2.4909463065395068,2.5817576245184255,2.705624459499105,2.6881365904019394,2.6158799897922913,2.7440049032939813,2.918644256125765,2.935620748866117,2.6418142557670548,2.2824918700672017,2.1453328666360716,2.1428030037035644,2.030131419958238,2.018397315217975,2.0409518094009615,1.9019657221937536,1.8585422906793747,1.902705957802103,2.1459296100122747,2.3780082667116056,2.409550166509453,2.3368760288550763,2.0515211514337928,1.8946579403483212,1.7588850073053293,1.5645526936638943,1.4184940669838948,1.0912550150853053,0.9181112118390926,0.84880726303724,0.8223344036718157,1.1284318978616066,1.4435749600381937,1.7892948238288302,2.08227203967028,2.1254512528060134,2.248080257747953,2.4510662834525916,2.4779199500792037,2.4989104598562295,2.534629414650784,2.237827858734874,2.030052023180193,1.7839161235756391,1.4592910134440917,1.2635093762351297,1.2095019289412132,1.2945831034143571,1.5969153984266573,1.8855149822834947,2.1051313753672236,2.3284281786407193,2.3024742926197117,2.0424380196463385,1.8817947952575507,1.9686466995481906,2.1700301118164274,2.4859007507078905,2.6196722078213432,2.7595711969529604,2.9178016511094675,2.7764108117949378,2.606048761165838,2.272083369474075,1.8278017904976747,1.6437137669108117,1.6845878558255585,1.7665891454637495,1.688931251820387,1.685877576592664,1.7887391537312538,1.8611349195931528,2.0509162743262976,2.166971663698667,2.3321409586037505,2.6221359439313248,2.646306916053089,2.482141232755912,2.3465666141197348,2.21394864396744,2.030533680451808,1.8919191932871169
1.9763246817737499,2.077213494641382,2.323896575535626,2.56142517901971,2.634969303876135,2.4912747936773774,2.3340977113975754,2.315888260599664,2.368977562396206,2.471904192869943,2.471875786742385,2.4807161700031424,2.6388699936760034,2.7180213559909414,2.546215151048923,2.310401650092132,2.1356398040928473,1.9702708198913446,1.817261217926592,1.785855898753691,1.6630881662120476,1.600318947963872,1.5910736122335019,1.340219727342133,1.0989503671624108,0.999631645192405,1.0081163573118264,0.9782093292461099,0.8724052241114646,1.0209097504957696,1.146163068744348,1.3218371312876385,1.6183541965330124,1.6836711141193714,1.8099403312775444,1.8030309701439047,1.729591881898684,1.9060179182219297,2.1633942257212992,2.3930857767942944,2.468727231745578,2.447633568089058,2.3579070008486824,2.302819526160689,2.3295627391936318,2.391449947181118,2.4448582563962176,2.488405081155976,2.5611913239230657,2.6500438412245444,2.5846390628250395,2.484859269768303,2.652108438211949,2.887856836288022,2.9653696274681702,2.6879209020147807,2.3471542576260047,2.2863378615563295,2.3416288033905555,2.254347343125344,2.163414555920732,2.0948273498688263,1.941623690287595,1.9204763151029633,1.9307153987437489,2.1082567595518413,2.2595210898651628,2.2060270337812935,2.132825400944233,2.0106872026894127,1.938002728590219,1.7515317343678272,1.4502278732946663,1.2861355174430469,0.9703885277824149,0.8258452689165157,0.8069653674474631,0.8488790710852773,1.1887227805714506,1.4553413726197564,1.7982761807551921,2.1934769093525457,2.36984999384644,2.481205019640195,2.6600359278058927,2.718460395813624,2.695388542646086,2.5391954684431375,2.1661725596939907,1.9426817019006144,1.7484913208380284,1.5544782623430073,1.5078697194577813,1.3888127685411253,1.2775715324095087,1.4500302525258497,1.6473351848403235,1.782189675112513,2.0192577896703297,2.0962218099737084,1.8781930882078304,1.6687054779367294,1.6823170336551174,1.9126220992802085,2.331556452983664,2.539823838409035,2.7005831645866225,2.8053791824967518,2.582657306032887,2.3578169600303984,2.055333823526206,1.6898011729616738,1.6043999506129745,1.70291228537932,1.8194014297134304,1.745715381567951,1.7386290601687364,1.8338238895400645,1.9113968579453822,2.138645089812578,2.284604592319551,2.3895110968537305,2.515870998922615,2.499660645866819,2.4489543208990026,2.411983514669023,2.322616251911881,2.1782903329521845,2.056763105910133
1.9553048386960523,2.1656762617060497,2.390572429052228,2.486836270185609,2.447580224023934,2.482745325391861,2.5006920195098568,2.3615703343315335,2.2841313330222754,2.3916967832174483,2.4617193740161487,2.5746550356566265,2.852028385780844,2.9160188032709855,2.728820639020282,2.4165563727198385,2.1791107085221486,2.009190179123095,1.7962281815341805,1.8074246714088165,1.7540938844976466,1.6375089107710024,1.619017479611502,1.4777459460327176,1.1796099627291787,0.9961134472031492,1.0260040921999483,1.0919195863486493,1.0703488979314328,1.1909459894478502,1.2773410464117148,1.4697130564933798,1.7559063275573987,1.7437050369811447,1.7022481930564988,1.7352053620991839,1.7675248466085627,1.84907262085965,1.9789460450544964,2.117651772453178,2.2586442653742713,2.316773805111108,2.1758755643818604,2.058365517035452,2.103870225879581,2.316220612292098,2.5089274843751435,2.618629306575378,2.6839820951553746,2.606248132544841,2.5033734588602314,2.518358186603023,2.698449930467745,2.8324395202165418,2.9441473435084964,2.7442394850590044,2.463170497739434,2.457349784929281,2.455075841387847,2.3662604502344795,2.118827257648003,1.9207568607073826,1.8312112689882576,1.7936330340538602,1.8969672594276799,1.9730968167036487,1.985406543955939,1.9252331606328859,1.7878266399138198,1.7928257219995352,1.756110537887201,1.5273648778315212,1.229571915033441,1.0708968719502636,0.853879408325466,0.7286509949840724,0.717886393854658,0.814281068326712,1.1285003368107938,1.5515748258027258,1.9548985211427303,2.3432218916908707,2.532607691097764,2.552237580395121,2.635026446435061,2.83812371846251,2.9128854752797655,2.630105778473559,2.1889644638683636,1.8901452884242587,1.8317331407485966,1.7265060515951725,1.5926562299030775,1.5133599633072106,1.379059029188221,1.4083967786394376,1.5344842130964271,1.7306332472319386,1.9820598913141922,2.077047682129355,1.933916963373073,1.6840325820925526,1.5374416873398316,1.7766191178919695,2.1476510874030783,2.454723076920028,2.654352522289066,2.660564083596195,2.513264505506462,2.156807984288637,1.887139160429815,1.6968994843891483,1.6242953711422414,1.6677467050708703,1.6091438069456152,1.5164390223826412,1.5808876373163767,1.6287574452955786,1.6507321943621236,1.9857201467784247,2.2227615459513044,2.3654148724839024,2.4868173768077444,2.401790074885819,2.2948456619119875,2.2833268120351344,2.212783266069165,2.1372354687628716,2.101288472218708
1.9528886356266084,2.151683452816332,2.2426893032234547,2.284899124225875,2.303917984507298,2.482802071586216,2.613607962012948,2.4864471062380584,2.3953541712317405,2.472574048994228,2.543990356714241,2.6663819227632106,2.9410216125048794,3.033753878344747,2.990191826579402,2.7275551130071722,2.4472195652950846,2.2061732427622673,1.932669092098545,1.9674447632114753,1.9528886356266084,1.798360077922632,1.7491524569417607,1.6358972263662506,1.3790752801356148,1.1782221582460446,1.1076510979728,1.0471032388996946,1.0773392495589948,1.26678466880338,1.361786914538976,1.5533815215762046,1.846055386399635,1.8213692724576367,1.6837906675829735,1.7185260436956267,1.7855642735208848,1.7632010541447876,1.7526708035677303,1.7909124867325217,1.9528886356266084,2.060086317303447,1.927939793906278,1.8198060105912577,1.8974671990151133,2.1872512275575904,2.4432191567753336,2.5766585264393997,2.649651043935097,2.6055194162818243,2.543990356714241,2.5806201903223758,2.6876325467896813,2.7529002491085266,2.879121357516945,2.7275551130071722,2.4457069059722167,2.3756548520737697,2.3111244539169706,2.2464818845866965,1.9528886356266084,1.7064130102970891,1.6473128232724665,1.5829628370560445,1.7427403186467267,1.7693238463032959,1.7561793897161495,1.7953245528892037,1.6148349085411875,1.4755899870117937,1.361786914538976,1.2228851786669455,1.1424079768634072,1.049565125308347,0.9226786529074431,0.8318735776705113,0.8206972858737847,0.9019185960978304,1.1669794093229835,1.5697272661632353,1.9528886356266084,2.3349636688931565,2.5511022601434483,2.558224204808444,2.615791864736098,2.890339003350536,3.0455282182177217,2.774356850590177,2.3074352246155083,1.9602066795985011,1.9528886356266084,1.878591426343671,1.7091090325606229,1.6877851801797368,1.6152326603877674,1.6065399889903134,1.6856541095508073,1.879913599459993,2.1217264662995317,2.113172159167592,1.9528886356266084,1.7652150651038716,1.6714673462645513,1.8507847836830447,2.0280571120388537,2.2992372822629035,2.5099997826600937,2.5056554287842197,2.4706367841251233,2.165948646741992,1.9528886356266084,1.7581102632065537,1.4929456024639078,1.4402459270402486,1.3626761584530789,1.3109891614768783,1.42068939821883,1.469297071876553,1.478532102128088,1.7413248677347943,1.9528886356266084,2.155344160383903,2.372466627589524,2.3015252306858316,2.259920922625738,2.2992372822629035,2.1929413877873074,2.0561249424363037,2.028700898935028
1.9230832358496692,2.053064471207714,1.9858960087838353,2.064322042514196,2.216692196949063,2.4542691734259487,2.5972990793309814,2.4955678183413608,2.4548264289818076,2.521723916354128,2.5764073634231734,2.73229285871935,3.055716373139985,3.1686214816781466,3.223615612509768,3.03701840300883,2.7275481105664254,2.4240611064688746,2.157568062898301,2.1580905044327103,2.1764711847251137,2.0723536934142506,1.9820680972994427,1.8305266565413134,1.5774514867932317,1.3310421038925708,1.178335320330946,1.0663561194296658,1.097199096368052,1.296502168543596,1.3830994374992196,1.5617430634053173,1.8634910014342452,1.86888463967719,1.7814731800904227,1.7452463501594278,1.6622566263733454,1.5602901890718457,1.5486938829518246,1.5870733028048938,1.6563066656828018,1.7039890592808797,1.6606803835672799,1.6708211398929775,1.8419820798292779,2.0843627636889623,2.309693082361453,2.5107346425739547,2.601770534112489,2.591723088612783,2.5431765541900724,2.5270509901220004,2.563109794505449,2.638111021584099,2.7921761465291115,2.730435692523884,2.4908400808345905,2.2723562334505405,2.1151001094692883,2.0380068206415305,1.7752412555534804,1.557284919867305,1.5228939515361075,1.41397177844621,1.4499966936588737,1.4726214806211746,1.5281292669058903,1.6029767705919156,1.4159166403029178,1.1691778454137216,1.0460753334466495,1.026260407955592,1.1175326648997175,1.1071487058795861,0.9707002024564165,0.9243840114723761,0.9720599311158012,1.0263249493198352,1.249503107465203,1.5748354145666226,1.8906155708584576,2.281957009109581,2.6423962510781944,2.7379864375934884,2.764418471408143,2.9459099767538786,3.035633637320737,2.805143741941826,2.407816005452391,2.0242201543588974,1.9549539019953257,1.95642987127433,1.9299361501267804,1.9212935176919639,1.8856357867727727,1.8602913401806194,1.8566567431291359,1.9806949128886462,2.2287126461899884,2.2397793596981392,2.055540998332692,1.8698266991703232,1.77017193436282,1.8276793138453646,1.9537000819621033,2.178666037019526,2.360516533059877,2.372473894273318,2.354203634544203,2.2075390490117344,2.0264450725575074,1.737538446537587,1.381703639663912,1.2403725192780166,1.1456107347152409,1.0720664116765304,1.1525797487167533,1.2985678885639507,1.4080311653534558,1.5113528722129213,1.6621992856321344,1.8749913625553993,2.0778644078422315,2.1361859449255394,2.2506470156159053,2.330532180872516,2.2605558986678123,2.124211242762135,2.015119846773384
1.8168691390479283,1.9673849823508767,1.9244023536557595,2.0651539622022783,2.1751432147769467,2.3498705770585904,2.4706562059890818,2.3512248557051296,2.35854960690874,2.5101235805276394,2.595969276196676,2.8024516337784267,3.15891147454953,3.212878360535724,3.260009411016121,3.1295775896528766,2.8413291848055757,2.614799169669073,2.433145022727875,2.3147320321168925,2.3370572335245945,2.2780907369665915,2.0840609650988444,1.9501006864584323,1.736430392865332,1.4148709314745773,1.2304978887310845,1.2095687163713564,1.1979855563429265,1.2912509325302282,1.3035375736106811,1.4389385515345618,1.721641948160931,1.753949855521811,1.7628529304454827,1.6133340080339136,1.3586952048276677,1.3612665539185624,1.5036650840930377,1.5711773659447128,1.4400773399762274,1.3620688618701842,1.4650758882909876,1.6591393181168534,1.96573847566708,2.086072102414792,2.2291167729000785,2.5451957013733835,2.661426771084068,2.60080426335017,2.5329247166934685,2.497327776125892,2.506969938852177,2.555483938349719,2.5973766346652924,2.6422344682726346,2.6020649008669086,2.3164203470052906,2.012007088451859,1.8702199341123174,1.6693678691949354,1.508801770745507,1.473232245394062,1.273830709653109,1.1333827555912341,1.2069982921311262,1.326444274873809,1.3026974789033305,1.1362709320955484,0.9557289841394057,0.9284101506588339,0.9185203921974577,0.9205219672181397,0.9787053134454328,0.9199416894868063,1.0165325644212988,1.1783004402487347,1.2011597098849163,1.390179499641257,1.7918085679354672,2.085219191919659,2.385211730356618,2.7986418435867453,3.0123671030882813,3.05639184442902,3.08210051290236,2.975497667097229,2.7432997046621526,2.50195655461154,2.1483698284910684,2.009350368212777,2.0206673240152866,1.9714109729006204,1.9124442637095402,1.901248128911499,1.8181674724868488,1.7399937929308247,1.9238752961256222,2.2206632414602097,2.3690177603697395,2.1958551132912336,1.9846451441310398,1.849809916764101,1.7900012115543706,1.8936994069527233,2.0384471156186863,2.171289510693883,2.1944931055355683,2.103078652801746,2.0791047481899185,1.8961148898050342,1.560425514542319,1.311299977360977,1.0952339868878636,0.8918040989249337,0.7258899193853918,0.7225300690420839,0.9756428686515856,1.2535106175168433,1.3259480924922011,1.4933994398972252,1.6863510010418443,1.8038816676035183,2.0530183855687887,2.1932491483611747,2.2269975601778857,2.254384238060789,2.168457221594021,1.9635059078386974
1.902399984997601,2.0364348800425747,2.0488269871291838,2.199126970699872,2.1732633401946244,2.243140134892112,2.401028889758395,2.406639793589186,2.4405614332384324,2.623901153546416,2.7273483428228515,2.8606918583215983,3.0523451603456535,3.060909343561477,3.098460856917741,3.0008694256855737,2.8466034099640374,2.8609668032120594,2.7496694814937053,2.5000097109319794,2.392800889759188,2.241806698415909,1.9829186770883243,1.9134729949221074,1.8286208365948082,1.5499739753629032,1.3269965428421546,1.2355185066251346,1.1710926826542079,1.2293327750758558,1.202340413879921,1.2852265213611767,1.5167749083258293,1.5301922784350126,1.5378374903939396,1.3739022600641755,1.1097240846769487,1.151827382701025,1.3584207223625389,1.5328469962072535,1.4244247049016225,1.33576828897144,1.4675426962263913,1.7015117311691652,2.036162404173085,2.1669362716455516,2.2311999825071105,2.393949058829024,2.533084914040746,2.645132025405119,2.665203927259438,2.6264585638165787,2.5661640477648375,2.5000330964416437,2.3506059654585454,2.3761776899727494,2.449371230366494,2.237489957938452,1.8913209305133931,1.786081479739924,1.698941306928935,1.6121413800714104,1.543473133980011,1.27928917827613,1.0984542508415645,1.1668585841897174,1.250563448752274,1.184545890726648,1.0589149691638273,0.8959297916793696,0.8619322151844757,0.7951858087743093,0.7056268376865283,0.8220047604706142,1.023925952756382,1.3031118120011131,1.549793365240241,1.6228333804236463,1.8073921199684573,2.131743606424779,2.3876619570408186,2.6534042200539467,3.0137512742295183,3.2364539930724723,3.3544459123879715,3.33760424966238,3.0808805027541064,2.728941133849739,2.515731082229199,2.2865150695497607,2.1791512533146813,2.0971093528231957,1.895176826987988,1.7999765517326118,1.7255037612025015,1.5707045030120075,1.4660852967307387,1.6743107005420088,1.97457102866317,2.1313251610445767,1.982731363862742,1.9000555381081743,1.9933468348868733,1.965588861460277,1.8896350557443828,1.880825700397666,1.9451458741148435,1.9351818989681242,1.8286987222329278,1.8586139748634838,1.7282127313753408,1.400668164968784,1.1057308437498492,0.8667154107007468,0.7743655706107297,0.688366613974401,0.6796444794772004,0.9053803121357781,1.1881072924540972,1.2666057762605236,1.4017168465314038,1.5311312991331045,1.6025072106972984,1.8945292209540243,2.1300648868620273,2.2353395149911357,2.2579670765054307,2.09426494157355,1.8881549808922549
2.1289141083921015,2.1868658455886507,2.147691268861421,2.332517604036947,2.404190524786031,2.3622430310685743,2.42018713824714,2.457884513765378,2.4286247820738045,2.577635895409695,2.764693614480889,2.901201770771931,3.081845782604999,3.1653809370705845,3.1399764784051665,3.0333566549842614,2.9282278890171276,2.9596681873633823,2.9314226535167878,2.6010314463098756,2.3057337636355193,2.1309181276609688,1.9891528064031903,1.9007253818460668,1.75534981518511,1.5426950703279567,1.3621927918592531,1.2855292778323404,1.2638547418976311,1.1636461154059048,1.1262163520335715,1.2704042040011814,1.4035115522766224,1.359610542742667,1.278147912555898,1.145180480973873,0.9391752802743424,0.9685501228432896,1.2016125564068072,1.4341112274294323,1.4049892324261364,1.3611584124515552,1.3923641950935484,1.5116727053910008,1.791524820448501,2.088567027461921,2.206222491060162,2.2424507578127257,2.454549171964685,2.6396475949027254,2.590824331948986,2.5301744089989553,2.460186037674849,2.2688429900184173,2.052394499477096,2.112274129172175,2.2581272077919463,2.1317678176939654,1.7603483522695407,1.5114569179126993,1.5532092020791435,1.6905814661644376,1.673182613943749,1.3915080476210893,1.1329602309589928,1.1610904227155479,1.2303642478100363,1.2199902639649312,1.180862144468412,0.9820898705136403,0.8290200170053613,0.7109020537564164,0.640050433427961,0.7830364419568017,1.1615260934393803,1.5054678492511913,1.7720308676836634,1.95605746456798,2.1866677128489305,2.482676027652771,2.7864085796017974,3.0995554837401675,3.3460407374257137,3.4603279692214985,3.5069158681186736,3.434081367965115,3.10950951932274,2.7426155794133265,2.543693545711636,2.4197760421266836,2.2783822631082553,2.072682808129358,1.8493890766812844,1.7733060385679904,1.5540514767916322,1.3329692284347452,1.2513621894227605,1.3508508196720228,1.5463914341916893,1.7608114877550762,1.7006345433440844,1.6961113960164964,1.9499909288252104,2.0270216674013724,1.9711179624562158,1.9240638934072616,1.8511660451119694,1.6799353945568178,1.5885639308637134,1.5981737568471155,1.5220368792129837,1.3035768137031687,1.0498413914140432,0.8394068826990102,0.7720727336914311,0.7686970287652999,0.8228846898173083,0.9492406943012486,1.1306030508577363,1.151177080562222,1.269177785959036,1.4378248992127474,1.4956730861652316,1.659399036001728,1.9931316006674515,2.181319532667674,2.1915127742685936,2.100455132224248,1.9500719280928278
2.1872512275575904,2.2113026627309424,2.1771739225935667,2.3920931147576505,2.5890178343577928,2.5313855670051333,2.5501926695147223,2.619536915381251,2.5665187279947475,2.6970174028488967,2.9209331293993577,3.0191031207830528,3.1242422582897835,3.2383601102924056,3.169250776494709,3.0380512630190073,2.892345334746065,2.8105446716413502,2.7893552198802727,2.5838089432927154,2.2992372822629035,2.0728500326901678,1.8739985601396365,1.747841794913176,1.6598813125929845,1.5435726214872272,1.3877244174910663,1.3297196995635827,1.391535000411889,1.2894859210974225,1.2700045363925103,1.403402518989331,1.4134977594501736,1.3417831873907975,1.2911670353627882,1.2203454726809353,1.0483918201186597,1.0479734573144095,1.234861664470917,1.2792084520252545,1.1782221582460446,1.1727621041647414,1.1904169748676456,1.2196970202434616,1.389314632148245,1.7462023815036738,1.9816193857683584,2.1109460766480557,2.3662939430406937,2.501170893971883,2.360425534360547,2.277294572665814,2.2164177640295057,1.9953933766423284,1.8873195599837993,2.0118626094370837,2.083892972581679,1.8266745296589368,1.4557013046802265,1.2582044988832097,1.4229751996670008,1.6235536078787765,1.5541008572110506,1.309724692435957,1.096855910710689,1.1464261887584535,1.1986487403302735,1.1693976956288716,1.1692867135491085,1.0992490278663452,0.9848441418538592,0.8868877249129468,0.8722814262439192,1.0015038071807916,1.2357565235497698,1.4904974236633215,1.7576626520000325,2.003398016948417,2.2801343266317553,2.614162409986432,2.9619176884229637,3.3829795372166185,3.736235497102938,3.7959116183638084,3.7363688077201775,3.603880382721702,3.2290607368589126,2.8117204871399846,2.5863519523168135,2.3844036751187225,2.156657084993578,1.9494052428851074,1.8454553730157246,1.7909507689439639,1.5675715053245964,1.3490559487748999,1.2585029614048586,1.2490507233686443,1.3495617760277254,1.5229935051040857,1.4737730187898606,1.428064124388715,1.622466743195857,1.7699156351223666,1.8341101803663584,1.839123473773448,1.7862832953671126,1.676347155644902,1.6212481863843617,1.6197683262297096,1.5655553969363265,1.3840795149607477,1.129723187571804,0.9370483219278327,0.7468030389800112,0.700885656814739,0.8612505341838348,1.1039624632181937,1.2552548858704553,1.2389796281162264,1.361786914538976,1.5417930766868335,1.533817693040611,1.61575635707665,1.9818394919689601,2.206316181735534,2.278320430235244,2.3688446151131566,2.254986183721981
2.2406746481719435,2.236856468263518,2.208230193216498,2.4321193963711107,2.67772574465177,2.6701909202257506,2.736339939167287,2.8423218798726007,2.794321866131962,2.8741119699523945,3.0983490821088364,3.216426880414629,3.232909304717749,3.2555743557143453,3.1010175405195244,2.9457881607091863,2.8193024128891415,2.747059949282511,2.6487573078891944,2.5061211901850355,2.2597130624388484,1.9917671073756247,1.7142073379105074,1.54205474336418,1.5615855745492724,1.574015237178944,1.445992916040273,1.304907871991948,1.3644181146800292,1.3955267880022295,1.4507878703721382,1.4850347932123096,1.398033067242787,1.3909913864033343,1.3851773126997389,1.3542297615754804,1.2393262489332013,1.1835794217820432,1.260285214696485,1.213012794185913,1.0832503004608598,1.0259368423444726,0.9904908175871452,1.0134315401425815,1.1251448464777625,1.4065337660665553,1.6980090904893048,1.9389331283589006,2.13567062143821,2.2725710630477964,2.1871069508538983,2.0941833069872007,1.9870132655459634,1.7936012918578328,1.7993578926986937,1.9245617995618718,1.8925741898688027,1.5324769568502334,1.192820925988231,1.1740646902652003,1.3986244431820967,1.5280002832685464,1.3992096754705623,1.2277278288688038,1.1132470390410514,1.175186666242997,1.1749635129897589,1.1181692264000735,1.1619225901314867,1.209745296787551,1.1659997282260262,1.1371919512360595,1.1602497995221033,1.2268428789042158,1.3662481959631723,1.5869257230631133,1.8076635801537353,2.0066832103733363,2.3264094938827404,2.7114612581047473,3.029620456481185,3.4754167756944487,3.9538393821099134,4.0,3.951658055756472,3.8211256899138233,3.4237497290683008,2.9400596356920747,2.6393173571546678,2.300886357058814,2.045233091764542,1.8626162495997545,1.7621755433943564,1.692393430283667,1.476292807456199,1.2596512956265993,1.1966687671786882,1.2021321903588413,1.2362689568787717,1.3512136253756297,1.3325156552444748,1.2568676272473953,1.371881527422582,1.5892373542691338,1.7144563539519762,1.7026051688978798,1.6804727327930047,1.714093878552178,1.7297590156259466,1.7622789119713265,1.6734583185329701,1.492260023878323,1.2805508727650572,1.0877906566168871,0.8417196699683616,0.7254463874309095,0.8714819589050534,1.2240371462305828,1.4333381183345104,1.4163177282179666,1.5407251384121596,1.7233475049081495,1.6641702414897388,1.7118565491879514,2.052088472998225,2.350209733009486,2.4885257081069567,2.5682495199529596,2.4572852435650376
2.4371678258458633,2.385028411742723,2.311181926779705,2.516976657892256,2.6911348241353523,2.6900390742799756,2.7500050701634655,2.7600397659361513,2.7050782691208415,2.761289965852532,3.032279336081417,3.3135167783434856,3.4025347117924207,3.3156987653045444,3.156587060586108,3.0355083861164327,2.8830312297626985,2.711810851656001,2.4822451133037853,2.3152752827912573,2.0762225254117586,1.9084211013861596,1.8118443510682918,1.5708474254700835,1.4317871768002004,1.4780022287579804,1.4912912428070566,1.3575924525315441,1.3081069304411228,1.346564004719645,1.4731031626655755,1.464055678916688,1.4200790298105133,1.5493080498539429,1.485114099156807,1.4580845127216182,1.4560993868306153,1.3031403502501953,1.2028013858755089,1.157173944393618,1.0890950263579136,0.9872427420527418,0.9299193748220901,1.0203087296852422,1.168489690458428,1.3316903581477593,1.5812460169489455,1.8124873369777295,1.8744434298245447,1.9612707244170287,1.9599207376556054,1.8902536611039322,1.7699064196461005,1.631085624722421,1.6700326716709455,1.7096804746650702,1.6638648095577238,1.4637455236402068,1.1793410293680384,1.1237470668196017,1.2274730985714426,1.3284983682000933,1.363681999611695,1.3011470988854954,1.265789199184361,1.2815068380485413,1.224007220705504,1.2649517469074811,1.4166945388030676,1.428320341053216,1.3467458039360192,1.3833125495166698,1.4124866004002357,1.383665446106012,1.5428476046268693,1.7734634118177022,1.945082306114637,2.169380288618147,2.568753629625979,3.039666316522609,3.287266609805967,3.5855025430420544,3.9336399829853903,3.9090384268184497,3.8410052228298857,3.724938049869137,3.4069046311830973,2.9849213008235993,2.597382580133851,2.2063045550414633,2.0040663041296103,1.7985618935498207,1.566411973803737,1.471197937265926,1.2432906213074097,1.0393050302165228,1.047104494054168,1.0971179076918443,1.0894874933435525,1.2135672421593968,1.3015274106909698,1.261199231396249,1.3716880354513756,1.658091891708707,1.8291930301404207,1.745642764275582,1.61259155113245,1.6212587891366248,1.7301265446740195,1.8162302654209104,1.6509160744924931,1.500003600311516,1.4308502039857232,1.2348631178076759,1.056188773647358,0.890546764446283,0.8411650238125925,1.0929477560447414,1.388460400437877,1.4606219065809665,1.640502982676424,1.9136906981625001,1.9095825899570862,1.8911004816225898,2.0831031088260548,2.4635095545991867,2.6753937997615074,2.6238232018475345,2.4860297013148536
