0.41267730751816395,0.40454368564121196,0.39400801674237795,0.38051663667866154,0.36485217184469537,0.34849558411286363,0.3331085616234709,0.32013532780989007,0.31052547977960254,0.30457646462852384,0.3018966457146088,0.3014881899466641,0.3019501910740581,0.3018045555078512,0.29993858455899763,0.29577325113557174,0.28915521802518174,0.2802758668636075,0.26959022945974626,0.25773154956535377,0.24542297636134103,0.23338568174386165,0.22224299862996136,0.21242172759616756,0.20404963541310164,0.1968492675307287,0.19034458654096928,0.1844558663695304,0.17842675898031474,0.17110821782003233,0.1614974177637505,0.149103723671477,0.13414234223977248,0.11755480276608955,0.10085731649552494,0.0858159648802981,0.07394971759979697,0.06586047478073377,0.06047132414707991,0.056442154851763696,0.05391098625303757,0.05331804493504107,0.055025247241150724,0.059098209732205344,0.06519361718810188,0.07254955588231475,0.08008096029055638,0.08657758567574854,0.0910094863775821,0.09293065042318288,0.09299441175387892,0.0925515976119087,0.09081786063257294,0.087265143731026,0.08218571888752199,0.07635941744601793,0.07077527235999041,0.06640308077564634,0.06402037941018719,0.0640899993623867,0.06669200845945887,0.07150652596731455,0.07785058308418731,0.08475076984727647,0.09078444207908026,0.09453056672301033,0.09514833394962777,0.09241811868532143,0.08670925819403891,0.07889410121764613,0.07020903659168054,0.06206291632218786,0.055790724962424265,0.052354936381717315,0.05199380118787457,0.053815197791455924,0.05653960325610466,0.06159085789454618,0.06956200066846871,0.07970405564050015,0.09056535404577361,0.10050894821437516,0.10810474863730905,0.1123995331850386,0.11306248503000152,0.110407797161244,0.1052937576290237,0.09889746113707837,0.09226943175374808,0.08434530441739085,0.07393179998236554,0.061883788969719425,0.05015160647795591,0.04092715809890466,0.03601387399686974,0.036421731697202614,0.04218524824492787,0.0524064922509478,0.06551999122769074,0.0797832934963345,0.09399298937822156,0.10803390813896299,0.12176597990278008,0.13499284320561505,0.14773107306413813,0.1602634211986603,0.1731403539212779,0.18713154763200865,0.20312551110369886,0.22198006857907043,0.2443197979322386,0.27028435405329215,0.2992247603506463,0.32949354804660375,0.36103967390131564,0.39465960530271643,0.429397300659671,0.46336242081950985,0.49450010196747646,0.5211561657548536,0.5424372177914227,0.5583699220520173,0.5698528690206542,0.5784064991348281,0.5857182357503434,0.5929839394679415,0.6005710740132348,0.6094667072604041,0.6206372066209844
0.4190583227723544,0.4092698417107878,0.39702466977635786,0.38173891600074483,0.3641874135914355,0.34586075452991055,0.32844290192364906,0.31340902005083915,0.30174362584421516,0.2937795378270197,0.2891566338587117,0.28690145515464466,0.2856269120465659,0.2838728407684285,0.2808864816898061,0.2765787105310772,0.27097977242575344,0.2642064980509831,0.2564485358670179,0.247951362114853,0.2389958488737337,0.2298747807532957,0.22086583200188023,0.21220163871502074,0.2040359408853373,0.19640696601814006,0.18922937352686184,0.1821704425319517,0.17446310860214562,0.1652644381577096,0.15399801607547153,0.14057025087691358,0.12546084160855484,0.10968850490615611,0.09464996054706636,0.08183473863761857,0.07241290353574643,0.06669835529942096,0.06354602635578999,0.06144878632308716,0.0601503205105359,0.059856657107674724,0.060879133025566926,0.06340727466984959,0.06736853277757147,0.07237784945041736,0.07777534861971365,0.08275083175337704,0.08656074213892608,0.08882688134738921,0.08993171971925096,0.09076051937460777,0.09060995280196874,0.08885773675397413,0.08546386172793988,0.08081734019169605,0.07558881343092885,0.07058804058110886,0.06662668482969525,0.06438673854153719,0.06429470936208692,0.06639985853381943,0.07025956720214793,0.07482182223243358,0.07841999227247824,0.07972724601728469,0.07821962741705973,0.07403891511218723,0.06783048508311969,0.06057614465014607,0.053419447908896876,0.04748656837787562,0.04369828607004353,0.04257694591428036,0.044047264624266586,0.047229619003102824,0.05120029972707612,0.05736571770993906,0.0662225375896479,0.0769958102068318,0.08826298902768072,0.09845498874802919,0.10623294347787496,0.11074264179108996,0.11174524721771624,0.10962471916453714,0.10527190985300035,0.09984516639803259,0.09430889113187298,0.08741405036090573,0.07774483496604978,0.06598575163721619,0.05400184370818714,0.044000151543009555,0.03790000836806438,0.03691175656412159,0.041325104964527515,0.05050419784877277,0.06309144614896697,0.07742109730613748,0.09214059090251771,0.1068821031513818,0.12172750828824067,0.13653104869227267,0.15111633103437772,0.16546748821465052,0.17983780796942425,0.19477638959911114,0.21107229177653616,0.22961736757098722,0.25118593145783885,0.2761329670783553,0.30400949653252607,0.3332536845602963,0.36398857441870025,0.3973915171261665,0.4328162762172092,0.4685329136623737,0.5024599276086757,0.5327244075395772,0.5580483630669767,0.5779651374427722,0.5928609755464068,0.6038448228875251,0.6124458773222233,0.6201388942457303,0.6278147014685709,0.6361154283184477,0.6458229078349982
0.4200865535653276,0.40844779777835216,0.39446601447841134,0.37761411691484603,0.35867238803368745,0.33909802567384645,0.3205152594143898,0.3043258987100975,0.2914408615610668,0.2821322199088262,0.2760060058681906,0.27209527837093606,0.26907440224728907,0.2656246017968197,0.2614012924314324,0.2567468617561589,0.2518492494666457,0.2467550560147684,0.24141580130758572,0.23573049735693172,0.2295858774804061,0.22289301268577077,0.21562151137397662,0.20783010622559578,0.1996948244058845,0.19153327643309936,0.1835920126288445,0.17528346207816828,0.16587217249500236,0.15487414851039177,0.14218217735082314,0.12811875171913925,0.11341790806787838,0.09913495500627507,0.08648453123753518,0.07660665127346415,0.07026156889782828,0.0674526039961462,0.06700974103233012,0.06725858598068979,0.06746998457327315,0.06757104579420792,0.06781657085704895,0.06854577394684687,0.07001086871932584,0.07227488417749398,0.07518129748351701,0.07839182206741574,0.08149913726916178,0.08420274462747321,0.08656440377736574,0.08892828432124501,0.09072107132315112,0.09123936403882431,0.09006666330121409,0.08713049308013804,0.08271133488007451,0.07740171503333018,0.07201730011872497,0.06745899965795414,0.06452685723916173,0.06368438746696348,0.06477448164137484,0.06669308254006784,0.0675784178929331,0.06629025348985877,0.06269706327809206,0.05734257615500038,0.05114766977723666,0.04515991449146628,0.04034998623712165,0.03745602250179347,0.036873919633578375,0.03859552438421738,0.04219447557379583,0.04685788946870798,0.052124204338172525,0.05929530352395107,0.068690286610599,0.07949548871497679,0.09035632331271456,0.09984694839540657,0.10681580308470093,0.11060913845357975,0.11117051644822634,0.1090183274280056,0.10509947109341504,0.10052005518430882,0.09606005751018155,0.09026175539727947,0.08154600624118949,0.0704380110487743,0.05869093789402281,0.04847838417656635,0.0417769999698281,0.039942128536788774,0.04347214328000979,0.051965045120661725,0.06426443981765236,0.07879714103176379,0.09410274088771982,0.1096145642205978,0.12565483521308832,0.14210733346111637,0.15856420126434911,0.17467113848736446,0.19035483912860035,0.20593257195339232,0.22210273346679923,0.23981974193358138,0.260048658780897,0.283403199022157,0.3096655561975086,0.3373581493473935,0.36674445776846865,0.399374074642939,0.4349371094069249,0.4719052307920944,0.5082111120632727,0.5417923239266981,0.5709964597326691,0.594853932116348,0.6132102077301191,0.6267237529118569,0.6367267266504885,0.6449500586692122,0.6528010630859293,0.6605405217903128,0.6687597649794456
0.4151064140481151,0.40155216975512037,0.3859460409242288,0.3679092127506648,0.3482417959526104,0.32832253166267583,0.30962959890803105,0.29338209138531696,0.2803030362208298,0.2705029050462943,0.26348439853975814,0.2582681748841482,0.25363952214348995,0.24854808712590382,0.2430654182465009,0.23784868196150943,0.23319488597023214,0.2290938020959609,0.2253174323185192,0.22150610609944013,0.21725282012069347,0.21218440460343138,0.20603993119244332,0.19874699709031562,0.19049461607330384,0.18180371723675773,0.17314169652203912,0.16367848490579873,0.1527451742778785,0.14023193989601143,0.12649715851974896,0.1122602200478708,0.09847669005851493,0.08619833757709092,0.07641600196537222,0.06988559186284342,0.0669384611373713,0.06727459954613259,0.06974220210154612,0.0725251937812295,0.07440522542169137,0.07502042950140105,0.07456638633488251,0.07353692889303202,0.07251943280341776,0.072039611702284,0.07246030954807862,0.07393028650514383,0.07638924759383973,0.07961744568594059,0.08334670238212527,0.08737645753959183,0.09131577022759865,0.09440897591589051,0.09585710509693236,0.09509687572408901,0.09197645185672898,0.0868254053653451,0.08042188324021217,0.0738542220692905,0.06827915784659336,0.06457523968841117,0.06289210655231159,0.062114179260343176,0.060247378340109965,0.05639494412681494,0.05084809893102615,0.04455808759752286,0.0387051782500239,0.03436911483161785,0.032302876671037525,0.03280784102279033,0.035710739155911296,0.04044304067533502,0.0462226684321948,0.05233731169536106,0.058824172711380775,0.06678784574288639,0.076299513041145,0.0864958579057752,0.09612501497610122,0.10397075883892667,0.10915336865366046,0.11130792553340552,0.11064021355847105,0.10785944327277439,0.10398923790758552,0.10005414830924578,0.0965642651233235,0.09185073560363378,0.08425283584132782,0.0741654125148162,0.06321276843593455,0.053484527429431196,0.04694532939464719,0.045016866483090015,0.048333139185126286,0.0566683464636433,0.06903638467591619,0.08396459166335736,0.09994017371008045,0.11628284721584148,0.13356624445859844,0.1516884742460369,0.16999547030914092,0.18778295311042514,0.20464450519400973,0.22066502774984897,0.23645818696950793,0.2530520976940759,0.2716175810200973,0.29304342644603226,0.3173567300963343,0.34316904749652805,0.3708314443347472,0.40219998072513524,0.43728607487689325,0.47478708060691804,0.5127003059640669,0.548837328490076,0.5812374094562253,0.6084853027203435,0.6299252210433482,0.6457781870241884,0.6571582297472093,0.6659908950186778,0.6741220147760293,0.681436369463029,0.6883533265301719
0.4045837744793956,0.3891813425949026,0.3721690530622185,0.35339466105775263,0.33369084757360795,0.3143202309820114,0.29654241490620786,0.28130158943424954,0.26903612592013315,0.25960933540090597,0.2523620497246594,0.24628582925418674,0.24031848149998677,0.23378296951456537,0.22713399555936017,0.2211905705096327,0.2162974742408618,0.21240627548195218,0.20918674326749187,0.20613576847587084,0.2026843080826421,0.19830215684174213,0.19259988729965102,0.1854291298667935,0.17698043620756979,0.16787833537424923,0.15867121875047907,0.1483114183459022,0.13621692893599524,0.12262775871501683,0.10832010179940725,0.09435524747451915,0.0818628600208352,0.0718590196944397,0.06509851223236231,0.061962294497865854,0.06237879366491634,0.06578065106274907,0.07106878929731401,0.07633027080403819,0.07990637336975313,0.08117159150527223,0.08026453043099828,0.07781587075177929,0.07471382830938639,0.07190188527510671,0.0702138699544209,0.07024160076287063,0.07224212471892043,0.07607190559573539,0.08116617228038152,0.08684781459259586,0.0929541337310426,0.09871696677292578,0.1029873892195701,0.10472808331194122,0.10335047728724733,0.09889523974309164,0.09205744729901437,0.08405569322773623,0.07634613790394341,0.07017949937493391,0.06600352278911004,0.06273865949076667,0.05832238177960901,0.052111364192710764,0.04480014630930768,0.037717317020848004,0.03227460882228331,0.029568023331374274,0.030132745622462424,0.03385062682856121,0.04000969797146207,0.04751698438784777,0.05526427899849209,0.06264614209285778,0.07015796894090867,0.0786258251746333,0.0878266926021331,0.09684057235998066,0.10454185238089984,0.10996893758878863,0.11257038523463339,0.11232993764376203,0.1097690121299829,0.1058261110363052,0.10161554417268795,0.09806199729976135,0.09535055403518902,0.09162068706593107,0.08521819019956124,0.0764487126020999,0.06680288287141195,0.05824490151022569,0.05265841297559679,0.051447289445293025,0.055294060324468035,0.06407344875663941,0.07692169864481296,0.09246296155074586,0.10919169380266229,0.1264125746717927,0.14494964368352234,0.16470716119811543,0.18479488526719756,0.20417684073249565,0.22213051309709483,0.2385192988362727,0.25387445286577887,0.2692908783118421,0.28613263313692955,0.30555111954839403,0.3278138812615604,0.35163252196958655,0.37738663152405105,0.40713038908960636,0.44114448976630644,0.4783556737624663,0.516875934694239,0.554476959603926,0.5889973123085634,0.6186883361778568,0.642491170813285,0.6602502637112004,0.6728612516339452,0.682354049288778,0.6908792345750063,0.6979900265756835,0.7039711542958782
0.39002722989631117,0.3729582215841966,0.35481527912865113,0.3357220316488592,0.3165526831168296,0.29843193019022846,0.2823570200980987,0.2689410697862394,0.25827906215577545,0.24993484724669687,0.2430511866784321,0.23658014394047172,0.22963684748748622,0.22197938507322837,0.21437574874403362,0.20764719518007302,0.2021225151023057,0.19773465170543983,0.19413199005557585,0.1907878644904752,0.1871084304879929,0.182538827769905,0.176667146422672,0.16932729452667075,0.16069925381667222,0.15140784627602094,0.14194180299272058,0.13106920233013,0.1182969680559639,0.1041543533902915,0.08975081036940855,0.07641038745309807,0.06538260655343449,0.05762994153974533,0.0536925084928042,0.05362796601257436,0.05702957930117777,0.06312000692879637,0.07087159786187655,0.07833133180039246,0.08350576395594433,0.0855625306784274,0.08458970657777706,0.08131698296224987,0.07685979254425969,0.0724825723097918,0.06938463090245131,0.06850456830893917,0.0703512058068313,0.07484623315536469,0.08119898056080092,0.08838418926003365,0.0964992100137121,0.10480592974516852,0.11187167138757642,0.11624566938021741,0.11693771904531419,0.11369733990267072,0.10709611371271878,0.09841014588260474,0.08930577483345159,0.08132640557850128,0.07518051633398322,0.06986913890078786,0.06331353672579415,0.05508402874356882,0.04621173233872167,0.038342236647884255,0.033084807354366634,0.031557220619184034,0.034123736234314396,0.04032884637786332,0.04902401712592238,0.05868878973280487,0.0679473645821138,0.07627847082557838,0.0845214536372617,0.09317060979559562,0.10169473320667645,0.10911567818865484,0.1144419706957611,0.11698063344782707,0.11652634617207923,0.11343052851503375,0.10854680604066841,0.10305603273485237,0.09816903919681423,0.0947068868193417,0.09251783730549498,0.08958769658238291,0.08434647614169154,0.07705556814616714,0.06908105666488011,0.0622368685589949,0.05827092355407024,0.05849447878627329,0.06355398431666552,0.073345254326177,0.08706907519804338,0.10343186330429963,0.12098756439235306,0.13911828918097155,0.15888295909598346,0.18018998435455127,0.20194595089674502,0.22282673703001285,0.2418322028309445,0.2586251358101697,0.2736527440757863,0.28805413893545134,0.3033494984092378,0.32091410948416105,0.341235739016769,0.36314265050090727,0.3869900594816077,0.4149010571589572,0.44734724730715786,0.48346702504179884,0.5215284811513988,0.5593557754827821,0.5947161019427482,0.6256745226224323,0.6509070317811664,0.6699794689491596,0.6835880702647912,0.6937643127343875,0.7027957439458226,0.7099790241821438,0.7155132977526231
0.3736606580970006,0.3551842258178318,0.33618953743937424,0.3170876118764803,0.2987982893215785,0.28230631861117084,0.268340292561982,0.2571734426343799,0.24854718392175537,0.24171673916548037,0.2356198182323621,0.22916664428998731,0.22165359689578987,0.2132803573993462,0.20503383500383787,0.19759731585302945,0.19122904310060904,0.1858596897254523,0.18118543738075873,0.17675898031473883,0.17207960167622974,0.16668198045231877,0.16022328964136157,0.15256975738569561,0.14388134846328846,0.13469495671308682,0.12532382309814255,0.11438824225438975,0.10146700370665218,0.08729228867732539,0.07320025344396625,0.06068701906209914,0.051071068301078854,0.04526165921824312,0.04363389005535128,0.04600946343131455,0.05174373569336834,0.059919149070378354,0.06957845363052428,0.07878732784074548,0.08536192171377958,0.08834186071967111,0.08777435558336882,0.08443665009099904,0.07957101611052562,0.07462990355634924,0.07103339345906391,0.06993504839270184,0.07200480172618424,0.07721389739229828,0.08464126244700755,0.09308192491258692,0.10290446531437314,0.11343953614559533,0.1230593926542846,0.1299937547094773,0.13291894001523438,0.13131614322650104,0.125603572274933,0.11703853615701965,0.10739255996079411,0.09839733014806591,0.09096225124171042,0.08420245169639803,0.07605462266230018,0.06621946181335857,0.055962187285092335,0.04716473476995195,0.04160109485918657,0.04043698676644811,0.04395269670883149,0.05148937387642624,0.06161853988115005,0.07253446993194332,0.0826716915412344,0.09154369501500637,0.10016629208919127,0.10868394660569534,0.11627918557740181,0.12191991518278363,0.12473925472671142,0.12429399949244808,0.12070093133529604,0.11465336928834446,0.1073153970334089,0.10009496337238658,0.09429631950656346,0.09064981583911522,0.08869960279522643,0.08632947305507681,0.08210633456615003,0.07628906516613049,0.07013975839240207,0.06531752703290017,0.06340434535909786,0.0655660302283388,0.07234513881368969,0.08358797994437629,0.09850339560820157,0.11585673014515614,0.13429637516346773,0.15335205423286868,0.17428781376457736,0.19701924078709798,0.22029820481096327,0.2425744169426647,0.26262252208382963,0.27993216106873753,0.29486247960101225,0.30856275613771156,0.3226548035765322,0.33868152650679595,0.3573186925080046,0.3775323403230268,0.399617659037407,0.4256398798611546,0.45617139621788877,0.49052738331285906,0.5271577589825606,0.5640219417092548,0.5989452089023316,0.6299618618386679,0.6556372339612181,0.6753749542173141,0.6897067291247796,0.7005656352596058,0.7102024573597322,0.7177485571435783,0.7233690989156961
0.35785130222997685,0.3382505638679088,0.31863744916791464,0.2996863953141964,0.28236224403560595,0.2675265056242278,0.25566772808614363,0.24675412839969704,0.24020914497617835,0.23501032630861832,0.2299111286175401,0.2237850610424421,0.21609347215792657,0.2074337704808864,0.19890969589165144,0.19096823680001312,0.18375778720646962,0.17721729539277029,0.17113768180401018,0.16522130405689034,0.1591413731261321,0.15260031986120534,0.14538772210644393,0.13743732861701283,0.12888315535980382,0.12011504477402662,0.11119744169621934,0.10063581178084811,0.0880492713974189,0.0742779468695286,0.06077592364341422,0.04912566420900749,0.040674846799488774,0.03629577133487812,0.03626711291135701,0.040277974014474895,0.047553991347011326,0.05710681546133178,0.06803143580068853,0.07846276020945353,0.08618232401164812,0.09018735090418546,0.09049505058773202,0.0878748797639991,0.08358846816283491,0.0791333770842168,0.07599398592973931,0.07539684593299865,0.07807511475330761,0.08403177052326376,0.09231798507945804,0.10172412395788549,0.11288174655661962,0.1252194175807662,0.1370080137154235,0.1462665397428866,0.15142376219777204,0.15173334152238427,0.14744495263646268,0.1397299536768562,0.13036194466004714,0.12115236253306093,0.11314089291445621,0.10557480058472948,0.09641377178345324,0.08538062048074481,0.07385710255819637,0.06387679436150644,0.057351315265409715,0.05553616785809872,0.05873531695191156,0.066245532679049,0.07653854479848636,0.08768281462237718,0.09800482691825671,0.10698865682997606,0.11563754446815776,0.1237636966026928,0.13031339133433717,0.13420952109967887,0.1346867058211361,0.1315065240144407,0.12505032311762246,0.11629307539254961,0.10665556978658115,0.09773574531478715,0.09092060620718996,0.08687505718258696,0.08490753679434003,0.08285340645153352,0.07943875773008491,0.07495046779628049,0.07057466339534262,0.06782975275543175,0.06812741954965362,0.07246299474960105,0.08123388818059239,0.09418634829875884,0.11049001314967596,0.12894227861514296,0.14830026255412268,0.16828018798754105,0.1903119491370104,0.2143230943832712,0.2389636508663876,0.2625250736794887,0.28361259591906,0.30157213911062414,0.3166696846704384,0.3300264995214971,0.34330659084178333,0.358158098709375,0.3754092735338629,0.3941864727944658,0.4147116955270499,0.438890507197463,0.46731110119919145,0.49942182233190807,0.5338623898420486,0.568789309519469,0.6021936192386194,0.6322165401188148,0.6574553472956652,0.677265397116406,0.6920554504855186,0.7035776990400746,0.7138941456455259,0.7220610884322788,0.7282542860454373
0.3442855664950123,0.3237985773704691,0.3037206054650979,0.28494811751262067,0.2684873195507961,0.25510237111105927,0.2450875214584218,0.23816241114301998,0.23349059989061954,0.22982280989837536,0.22576222374524682,0.2201542047765927,0.21259939029326014,0.20402380865664055,0.19556366627456215,0.1873791964451447,0.17948885382612412,0.1718435724624089,0.16435017586117098,0.15689327358971508,0.14935779255734394,0.14165138624260923,0.13372618482564302,0.12560113118263988,0.11738299869050045,0.10928865398854463,0.10110516059604444,0.09124683378124122,0.07933818472760876,0.06624719262180831,0.053459335356966294,0.04257987522503209,0.034962300258843663,0.0314652890834255,0.03233700314129521,0.037225876320399025,0.045320196611431905,0.05561423398963239,0.06723056224116489,0.0784074938799375,0.08702166918571118,0.09209897027892018,0.0936364678488128,0.09235093982541503,0.08943427393176093,0.08631106721918676,0.08440164482751583,0.08488678750984859,0.088481857362681,0.09520589490589931,0.10416594857868378,0.1142883039359098,0.1264481902083492,0.14018841522042527,0.15375534709061345,0.16505086699298538,0.17233555020316235,0.1746788523390107,0.17216006007821064,0.16581754084948255,0.15734821996038204,0.1485555763970591,0.14054708491105197,0.1327061988218898,0.12300505393983996,0.11108773900856697,0.09835090057265096,0.08691108770483327,0.07880055856097413,0.07540695205509214,0.0771567758326395,0.08344249084370692,0.09279221607924058,0.10328405516595181,0.11320333605531398,0.12194408199648542,0.13033572732881912,0.13789657131011568,0.14339547345326778,0.14572088238260764,0.1441831407034857,0.13869607785795518,0.12983896504717118,0.118797929016356,0.10718753261909576,0.09675198512066369,0.0889466413352892,0.0843987155167641,0.08225680349509736,0.08035074981079093,0.07756155775668305,0.07422023944771947,0.07146234219680926,0.07068876004912258,0.07315382386855128,0.07968174405694112,0.09050933097764673,0.10525675066986014,0.12302453385633899,0.14261903522759817,0.1629053177438019,0.1837955020823982,0.206846101922243,0.2319995563070648,0.2578472085182013,0.28257688928093916,0.3046708616674984,0.323355165160887,0.3387983327730213,0.3520628621299389,0.3648056446255887,0.3787296350654901,0.3947865298964967,0.41228370579682283,0.43137634300354144,0.45374890199668655,0.4799443503579667,0.5095057339183037,0.5412584967099446,0.573590504766135,0.6047287912287063,0.633017035309033,0.6571875716765725,0.6766329223087226,0.6916742983348724,0.7038289118479586,0.714862795478355,0.7238263155021957,0.7309363141478776
0.33292414930618786,0.3116776875474121,0.2912148164147248,0.2726305366780464,0.2569701484682097,0.24491457006945494,0.23658951773487727,0.23149805830636822,0.22857790165073497,0.22638204148939048,0.22338398957868408,0.2184059921199588,0.21117220568409317,0.20289656105752804,0.1947091863282818,0.18647003603149867,0.17806110776572973,0.16944383227274382,0.16064323074854533,0.1517317059905479,0.14281341940689854,0.1340091074224145,0.12544106876098066,0.11721890846655757,0.10942474488388554,0.10209956395256586,0.0947526572998375,0.08571558716520541,0.07460041516144847,0.06226640577574154,0.05019339797801396,0.03998294359992958,0.032986187225724974,0.030060879865353256,0.03145503649579444,0.03681899505698339,0.045344607534363014,0.05603307660528426,0.06802308726504609,0.07967149146931005,0.08900637486370161,0.09511537920367077,0.09798068451547784,0.0982482770526486,0.09700305146301008,0.09554630522617355,0.09517816409744957,0.09698254628774795,0.10162037753542831,0.10911860749940656,0.11867362859679083,0.12940489001561029,0.14241825538648983,0.15737538931760436,0.1725313990378386,0.18571381005001603,0.19505228185007847,0.1994541082948609,0.19883040921397122,0.19406910751810533,0.18675771875824174,0.17865365850895934,0.170903532231255,0.1630247603897038,0.15299375070608595,0.14032907095835429,0.12639575554589316,0.11336210469805788,0.10337332591111084,0.09796913814893143,0.09774326387904993,0.1022476894329118,0.11013825175023877,0.11956355320316712,0.12879847386815582,0.1371186684290702,0.14510875407918727,0.15201938871729095,0.15647718940835442,0.15734597415547238,0.15400114067360673,0.14648416312081738,0.13553737766343918,0.12252008213396773,0.10920560802873303,0.0974575584370643,0.08878860502023324,0.08379864620927172,0.08151388146661216,0.07977821602436483,0.07761906989110873,0.07541339653874594,0.0742537800558268,0.07543272998970738,0.08005410827533217,0.08877312849509492,0.10166414632024377,0.11821484971122366,0.13744853323063821,0.15817455411252282,0.1793659204182431,0.20113138280945703,0.22512614832643107,0.25130254243668076,0.27821014133240873,0.30395816036160195,0.326928411648619,0.3462405518743341,0.3619664956177023,0.37509862012864165,0.3872669769913381,0.40020836675595534,0.41498663575202294,0.4311018482779119,0.4486557521117645,0.4690968059820822,0.4929024524506955,0.5196944076504028,0.5484793087402724,0.5778867478665097,0.6064043081568513,0.632614023176902,0.6554230403179591,0.6742944169192302,0.6894756919446982,0.7022254071424603,0.7139679398655466,0.7237740761271231,0.731911628162667
0.3221779239916116,0.30044345126705874,0.27990443026028783,0.2618567514314809,0.24736496292420204,0.23699744866797892,0.23068341698631142,0.22769046695849762,0.22672357471211954,0.22614484055126893,0.22431526628850568,0.22005597522271794,0.21323270727778468,0.20534939500456825,0.19752635330006874,0.1893204750912407,0.18046607189290206,0.17092123015038008,0.16081757356011928,0.15040907336429485,0.1400199554412777,0.1299921924104097,0.12063189724524688,0.11215535072295878,0.10463344216373734,0.09793606134835979,0.09129238456343065,0.08297404523265904,0.07260238111953765,0.061038536352307035,0.049755075445863065,0.040336072011050925,0.03410733209410469,0.03189589776393017,0.033919075056460024,0.039802449235777,0.04872801027445982,0.05971131447254294,0.07194377441885648,0.0839171368291793,0.09379416241094773,0.10071871127512214,0.10466432198124519,0.1062201033324132,0.10638250920267384,0.1063488953617977,0.10731764283831854,0.11028854980272557,0.1158739642567455,0.12410308166420393,0.13424306170778622,0.14557820053807533,0.15943320570977346,0.17558671897374137,0.19230385603726552,0.20734120426113165,0.21870146193111686,0.2251341795200754,0.2263854346076779,0.2231947805150451,0.21704056714580752,0.20963324345882467,0.2021559580667213,0.19425846304728192,0.18395175640008019,0.17065854420871848,0.15570289934390275,0.14127321222456057,0.12958741048636616,0.12230006648558969,0.12014643722091602,0.12282707390074929,0.12913065770740229,0.1372957940858583,0.145613034925098,0.15326441901954602,0.1605936033422264,0.16656700500531327,0.16968386487792536,0.16882274516060777,0.1634679651064409,0.15382362444205175,0.14081321279284686,0.12596573272753886,0.11118889787319346,0.09842716029588773,0.08920808231988132,0.0840729273393256,0.08192759778844849,0.08069928896840123,0.0796162739616399,0.07909143911862117,0.08012470466444892,0.08383287032322112,0.09110388341655667,0.10237321039862354,0.11752394735950464,0.13590952218352387,0.15649959863560517,0.17814923119751103,0.19999134388672862,0.22234503628781338,0.24688377481138413,0.2735441887015117,0.300870300665432,0.3269590351514361,0.35016396084605134,0.3695573284178197,0.38514952471444835,0.39786865912850855,0.40929626043212997,0.42116231852797836,0.4345982308720646,0.44927072428770637,0.4652590854525839,0.4838111793873776,0.5053358394664963,0.5295088421000932,0.5554846425025219,0.5821035028990901,0.6080921281901537,0.6322621153119272,0.6537005811850175,0.671957071048577,0.6872250170559119,0.7005184001237341,0.7129143156099943,0.7234784842613504,0.7325145047262964
0.31197799072131055,0.2903343388355228,0.2703410362163382,0.25347806829922365,0.24077774860401255,0.23263782870894437,0.2287457267458863,0.22811341060920193,0.22922308234380404,0.2302842983963879,0.2296015737038508,0.2260524207970518,0.21967753268451704,0.2122530237077907,0.20488187700859176,0.19683820938264093,0.18769561082817768,0.17737616167920592,0.16608095911883208,0.15421383304510544,0.14230086325811417,0.13090298835589212,0.12052402537681432,0.11151241583479937,0.1039573572422375,0.09757949099710515,0.09134284194112925,0.0835098161691509,0.0737618511369192,0.06299145900864117,0.05266764030446475,0.04433492294008671,0.03924778424493647,0.03813991891863126,0.04112820646016523,0.04775137806983223,0.057144115351570504,0.06834516498219907,0.08067321810271082,0.09278201231345538,0.10292052770166181,0.11027121804744448,0.11480996535894748,0.11710058872311051,0.11809533383255298,0.11893780360475123,0.12077128361518348,0.1245482148438526,0.1308500654749775,0.13970053851472422,0.15039547648022222,0.16231572072224695,0.17697177032992925,0.19424828369241964,0.21241923768202858,0.22917626219362217,0.24240681154581975,0.25071648499895083,0.2537009888474305,0.25196432255734297,0.24688526387768292,0.24013015122957332,0.23291359890529703,0.225007120666219,0.21452695000066885,0.20088090232926098,0.18533924884856118,0.1700390926284188,0.15717619618648657,0.1484267111349058,0.14459556324640668,0.1454936655119649,0.15004166456325882,0.15660185599176357,0.16353846385186593,0.17000494174723818,0.17613179047186997,0.18057045299935545,0.18172792132105667,0.1785805477947807,0.1708137244457915,0.15886489501301443,0.14386911859089999,0.12750840541309286,0.11176384834098974,0.09857035476980158,0.08937568771672627,0.0846008867804795,0.08305308780110995,0.08289773668757641,0.08367224645033447,0.08579829137209599,0.09007635443761774,0.09731184963808853,0.10804748061211268,0.12240466729034948,0.1400317947388993,0.16015969918712603,0.18176439123991572,0.2038381635877495,0.22576752091552288,0.2480867450934289,0.2723200785602086,0.298349360243414,0.3248037093276187,0.34991964412389537,0.3721809045653015,0.3907388693270602,0.4056121212242527,0.4176674188973938,0.4283796092826733,0.4393718600840107,0.45173624581194,0.46524447246384426,0.4800187289144551,0.49717808796435803,0.5170503720981393,0.5393021015998235,0.5631537733379408,0.5875798371439923,0.6114914224410786,0.6339067402171029,0.6541029952495367,0.6717537646769454,0.6870510037917975,0.700811453253522,0.7137689420218122,0.7249276142902324,0.7345913860492748
0.3039508370847226,0.2830894698406465,0.2643127587985022,0.24922722341277007,0.2387652632957265,0.2331022221067857,0.23166422345876023,0.2332280360035726,0.23611269917726402,0.23846251902953497,0.2386227279167318,0.23560478110383654,0.22964597717266247,0.22272211181433013,0.2159009920306148,0.2082375245293159,0.19914450455932572,0.18846379816189657,0.17640023739134333,0.16343984372322426,0.15025333167599442,0.1375847950024396,0.12612530693073948,0.11637184944084829,0.10846991163343543,0.10204349206259312,0.09584658398914905,0.08819083033949637,0.07886993440394434,0.06884305016630185,0.05958535411021844,0.05258410612619451,0.04897797812527432,0.04934321435416949,0.05362225385660848,0.061198769650426796,0.07111629295333793,0.08244232650937375,0.09469875798200564,0.10672414006909463,0.11679393870924999,0.12410750004125445,0.12865574320177767,0.13101508331399175,0.1321475548506115,0.13320264376153965,0.13532536879778256,0.13946511957397667,0.14619452752023984,0.15552289319820878,0.16672440663637303,0.1791912358537481,0.19456474689729847,0.21281305910167608,0.23221625206992422,0.25041386278737393,0.26520092581842747,0.27506816262010053,0.27949125097875593,0.2789654885206658,0.2747885110870018,0.26858901545572705,0.2616022919708471,0.2536964240048423,0.24317848964151778,0.2295513604353815,0.21402110685569053,0.1985850794385136,0.18529377129914054,0.17572156491201277,0.17064416617511205,0.16992426364695087,0.17260407035540448,0.17720511434222766,0.1822369134750931,0.1869118249147058,0.19120314311137912,0.19344164915508424,0.19200086766184465,0.1860576134885777,0.175598900024284,0.16136205919609753,0.14470768261542924,0.1274261894246609,0.11147750821500789,0.09866326274247736,0.09023351195944819,0.08642511505112087,0.08599753332505966,0.0875333221303471,0.09097204002180578,0.09669791492637128,0.10519106087625253,0.11680243371043002,0.1316065599766124,0.14933328399072113,0.16937814247913624,0.19089048801047756,0.21293984943538025,0.23476172546948795,0.25608112706598185,0.2776128548701305,0.30053755537495813,0.32464857791239154,0.3487739296615855,0.37146992422947167,0.3915339819087721,0.4083377045159329,0.4219786197907945,0.4332538847298643,0.4434513647024108,0.45396183847741456,0.46571063870496343,0.47850985925442985,0.49261002752075245,0.5090861246471035,0.5281666380163801,0.5494302026780344,0.572062515250724,0.5950781403407394,0.6175062250294566,0.6385436316442504,0.6576705539922258,0.67473239769846,0.6899861487541105,0.704112225019497,0.717510916808844,0.7290579424501751,0.7390151090919264
0.3003736482329372,0.2809362311507397,0.263909978570139,0.2509284694536845,0.2427553262925071,0.2393183171656536,0.23980814674518913,0.2428410330429182,0.24668563134995236,0.24955362186328184,0.24995579181857178,0.24711985284705082,0.24147529072676882,0.23506695964981847,0.2288990029309707,0.22191391497792715,0.21338288327565683,0.20302025120401995,0.19094834189782428,0.17763455129843164,0.1637986110575427,0.15029307265852623,0.13795393697900377,0.12742338216852384,0.11894334488425659,0.11212171247115972,0.10560153054533904,0.09779201249214334,0.08863681790144763,0.07919210976478903,0.07095469264353403,0.06534862654871439,0.06337046299806949,0.06539364029059934,0.07113098832894246,0.07975634383741857,0.09018464129174011,0.10151108983346575,0.11351525882852762,0.12522932841547627,0.13489973994555582,0.1417226173157222,0.14571592696525262,0.14750412471364766,0.1481087100418823,0.14874075765841444,0.1505998203160785,0.15467305132728534,0.1615451411180808,0.17120173606578137,0.18284911501128223,0.1958062132048056,0.21177571693171884,0.23077622731529548,0.25109046033825533,0.2703238021047488,0.28621231038937667,0.297173754605975,0.30260745517397813,0.302938601549,0.2994111377472253,0.29362501668486585,0.2868207770543574,0.2789239167189142,0.26851141313172905,0.25529968460111135,0.24042564545165432,0.22566187044107705,0.21278994195766032,0.2031539498289136,0.1973926058533292,0.1953514132996762,0.19617203529585112,0.19856232845834182,0.20124450302631977,0.20358299621035067,0.20547350013675,0.20496301891641475,0.20046972474340946,0.19146922217132817,0.17833128786073119,0.16213193088349867,0.1444408956387152,0.12708533970777391,0.11188905196470336,0.10038689359971964,0.09351558495845798,0.09127959323981476,0.09246913751424743,0.0962369146468174,0.10296261213279503,0.11293210629062649,0.126200590217059,0.14255969227395265,0.161540820384722,0.1824554156462494,0.20447233495457665,0.22673236264437474,0.24849797150112626,0.2693423609483038,0.2893734760871087,0.30940643425059494,0.33010570076094703,0.3511592796121827,0.3717034025018462,0.39077641332652824,0.4076483583605507,0.4220271303973893,0.4341397449175726,0.44469093306066004,0.4546965706412564,0.4651936489223017,0.47682629435013096,0.4894012982839512,0.5033871654550143,0.5198916829983878,0.5390251932441892,0.560204055054638,0.5824843071940845,0.6048331479242367,0.626335399538946,0.6463412127561329,0.6645467570235352,0.6810147806185474,0.6961312934654791,0.7104993185934974,0.72419787416013,0.735913579278915,0.7458284417912266
0.30335217140529874,0.2858160478774361,0.2708326233823248,0.2599361000152617,0.25366241958919933,0.2517016610266043,0.25308041436467593,0.25637505898899526,0.25995506730237916,0.2622573102658574,0.26209094982608194,0.2589716000393309,0.2534879303120878,0.2475820248509054,0.24215960212929646,0.23618573665867387,0.22882772303601187,0.21962993138480139,0.2085392923585902,0.1958859392790986,0.18231820184845368,0.16869314757076653,0.1559211329949068,0.14476663499430786,0.1356016760344397,0.12811660355792132,0.12097177052521663,0.11270276566968877,0.10341582532793389,0.09428418727786671,0.08684405531046446,0.08246590746092519,0.08200151406308388,0.0856067144489327,0.09274014758062854,0.10233742398560654,0.11316110515864317,0.12432663689640698,0.13589175103163,0.14707505392128767,0.15605309844427234,0.16200484761871936,0.16498466456999622,0.16569121432331407,0.1652420777523047,0.16495085544173665,0.1661098616515825,0.16977369707431184,0.17655356239827358,0.18640456593619747,0.19842960627036543,0.2118067676256872,0.22822592055299137,0.2477182866227068,0.26856428719079783,0.2883566390924136,0.3048114075562743,0.31632240267535905,0.3222633134000246,0.32303485723564657,0.3198587520530807,0.31431703315110743,0.30763730143300905,0.2997554904315529,0.2895764285003579,0.2771341810823745,0.26350019240689454,0.2501557905101463,0.2385111944098596,0.22956966862757983,0.22373543363612317,0.2207676268589284,0.21987718962317054,0.21996926762446667,0.22003027052087148,0.2196586630410913,0.21876480827612307,0.2151907074060885,0.20748591221226723,0.19550127195555025,0.1800341450225591,0.1624994861500723,0.14462895738897644,0.12819708637082516,0.11477456952069738,0.10550842728527982,0.10092989016939911,0.1007884532819363,0.10399780614153434,0.11037645353620047,0.12071355178245141,0.13512932467572286,0.1531872560921608,0.17407597577538123,0.19677647415854815,0.220216110877146,0.2434088555212186,0.2655816385724609,0.2862856896237076,0.30549645128648983,0.3236976504096104,0.3416881710623741,0.3595002722794344,0.3767217023943307,0.3928803419521142,0.40760854414525005,0.4207514338732021,0.4324201723762676,0.44298842375448394,0.4530348153709137,0.46322798986692826,0.47415729557780506,0.4861071022103407,0.4988628367030639,0.513188283364825,0.5302789121262431,0.5501113650715039,0.5718841934587124,0.5944538309867764,0.6166751551582672,0.637644162367008,0.6568457333173068,0.6742030712456221,0.6900310770577651,0.7048929839785254,0.7193610694796382,0.7332042597646377,0.7448789789438214,0.7544616332059636
0.3142446059427708,0.29885367770570914,0.2859285334103026,0.27677197180792273,0.27165478326664433,0.2700709537650285,0.27098653425140534,0.2730825293270387,0.2749923422934765,0.2755323363196355,0.27392734254783835,0.2700290646212787,0.264530016012589,0.2590865266644905,0.2544709093566775,0.24981074211451515,0.2442184926020745,0.2370392645789599,0.22796137938118702,0.21706319607136465,0.20479731757155842,0.19191130398561043,0.17930513722014463,0.1678260471773308,0.15799860018003545,0.14969402860979697,0.14172471665509426,0.13275585063913167,0.12304206089900352,0.1138793233331221,0.10686071918289415,0.10332552932401175,0.10400246862781418,0.10884774389856304,0.11707622662202527,0.12738771781012148,0.1383867914644181,0.1491969489861509,0.16013836404048426,0.17059351351003002,0.1786510953620516,0.1834675169218959,0.18513895722591148,0.18445110623955885,0.1826352265045599,0.18112619207080496,0.18132682544637568,0.18437250306772068,0.1909063795213057,0.20084865550006897,0.21318105376486246,0.22689930894630056,0.24361522546367817,0.2633351013351115,0.2843329866656798,0.3042096172787152,0.32069936659513615,0.3322196622758577,0.33816865301601345,0.33896663388116977,0.33584450124920456,0.33037707699117214,0.3237620952461485,0.31589892198435027,0.30604653922928077,0.29462990453278615,0.2826646709597994,0.27130485268642696,0.26152544638546,0.253914096204619,0.24856947109439148,0.24510724548415014,0.24277321949901562,0.24066411575776828,0.238055759820734,0.23483861987672094,0.231027244835796,0.2243667001031215,0.21361925424239872,0.1990534518167927,0.18189523378682643,0.1638609321437858,0.14677399400877836,0.13226436111683681,0.12155001646760862,0.11530160134677991,0.11359034682746369,0.11591719600125648,0.12140926308598787,0.1305724888703279,0.14451097939845042,0.1631180101153006,0.1854469498405332,0.2101071327056862,0.23559067159038238,0.26053031070125066,0.283888976388486,0.30508062341981995,0.3240213636585998,0.34111353793657595,0.3571598384270304,0.3728121588268384,0.3874313113245103,0.40053057263045366,0.4120735033394631,0.4223294291642374,0.4317471266146727,0.44084728677962026,0.45013208201152255,0.4600140263942616,0.47076233884274843,0.48246754116194235,0.49502425807241146,0.5082120839231419,0.5231422353931628,0.5411207550259405,0.5619811336276379,0.5846760174985307,0.6078291615228784,0.6301532434744477,0.6507343489123518,0.6691853328043649,0.6856627057828598,0.7007520736834921,0.715220293444681,0.7296331614381236,0.7434595325972235,0.7549110138862023,0.7639498904291313
0.3333364131781098,0.3200750450357117,0.3089658415026114,0.30096859124661407,0.2960783632612876,0.29365756865059445,0.2927260234206206,0.2922094882913985,0.2911469296380534,0.28885562276804827,0.2850555011625946,0.27995039602816707,0.27426933957810307,0.2692245782451612,0.26542623863708154,0.2622825755710911,0.2589030785786633,0.25442294189311787,0.24821453627497322,0.24001629868502264,0.2299819202940403,0.21864809965358947,0.20682159335562017,0.19538558859177974,0.18502449440828753,0.17586878718821028,0.16699766250766382,0.1571832021213678,0.14679012962883584,0.13722739467980535,0.13015845520649347,0.12692205504428777,0.12816566951301284,0.13369142367138914,0.14251372650607338,0.15312859664435735,0.16399621747867,0.17423406091228305,0.18437660410277312,0.19393882642242205,0.20092838157436196,0.20448412543035235,0.2047446387998731,0.20258036637280147,0.19933178516005315,0.19654957462990355,0.19574106045150247,0.19811678029300334,0.20434801012408854,0.21431823660960791,0.22688927605697587,0.2408671169928633,0.2577394342934605,0.27745821167336193,0.298287881334012,0.31785400500736377,0.3339396681110447,0.3450242044065231,0.3505698656725497,0.35105215227689957,0.3477363311769375,0.3421993846103973,0.3355964374503787,0.32775271969415654,0.3182721885280965,0.3079989370507719,0.2979075103328996,0.2888229121313206,0.28127068520581877,0.27539719745028884,0.27096224538308894,0.2674030351760423,0.26396832067594433,0.2599242851285631,0.25483265482359346,0.24889823740442757,0.24231092544054636,0.23283663126529527,0.21951261248919451,0.20302684215321135,0.18499232081186434,0.16735935915273398,0.15196365858023925,0.14021224028120602,0.13290609986977261,0.13019863558563805,0.13169248642532988,0.13667211941589152,0.14454757137192414,0.1564565377675547,0.17368003060543874,0.19583931441630018,0.22150942598495876,0.24880620822497732,0.2758490680446665,0.3011020823786628,0.3235936964943083,0.34301311052084416,0.3596840132963368,0.3744177018444015,0.38824263275904847,0.4015445840608195,0.4130562809939386,0.4222597176710769,0.4295515960007878,0.43580601620865755,0.4420266944183058,0.44908978442421027,0.45757582984688394,0.4676930070370832,0.47928975772842497,0.4919573202535865,0.5052230709194921,0.5189032587923018,0.5344734867839751,0.5533371647904268,0.5751820176057435,0.5987198472618317,0.6223496572755243,0.6446510858906135,0.6647079545531107,0.6822655718986143,0.6977158919111672,0.7119151765344243,0.7258323563268279,0.7400279671061837,0.7536775787723395,0.7647622371224326,0.773141579349609
0.35976410553447374,0.3483720892537552,0.33863961295212325,0.3311148361094574,0.32553569526263076,0.3212072236412563,0.3173046982141066,0.3131049820057323,0.3081444261514413,0.3023043691548655,0.29582369630780886,0.28923848368329974,0.2832489708110783,0.2785207215048611,0.2754859067442205,0.2739062270995029,0.2729320848090143,0.27150035976818215,0.26864872457321654,0.2637325355713528,0.25654630161335695,0.24734802174368783,0.23678805177107592,0.22574091300952798,0.21504028729898703,0.20511902912486743,0.19539335126527185,0.1846967289460916,0.1734487126997436,0.16314798672866,0.15553456161936985,0.15197942803645273,0.15310228166943762,0.1586166359268051,0.16740346969047049,0.1778116525442968,0.18818695388493492,0.1976285130125354,0.206814221256895,0.2153569213803264,0.2212156893493288,0.22352545087706982,0.2224637221951044,0.21896876153721245,0.21446487302365505,0.21058929725542136,0.20892491170813285,0.21073429813763211,0.21670347671105192,0.22668007444745633,0.23942665284162185,0.2535858669348874,0.2705041255924409,0.29006315789268117,0.3105161792179658,0.32952303644150455,0.3449327610892232,0.3553081356626301,0.36019788763495947,0.3601527396329984,0.35648708559651066,0.35078609762787344,0.3441571894513176,0.33633118181968197,0.3272136410776075,0.31804453226084106,0.3097727323546376,0.30292943524743937,0.2976271386775744,0.2935994096267111,0.2902792433824673,0.28691822545869833,0.282744177335786,0.27715942197668525,0.26997777727220046,0.26170225470025,0.25273683062442065,0.240974232122685,0.2257585865177301,0.20815765198948533,0.19009640068752875,0.17367383023101424,0.1606643217859578,0.15220330061065387,0.14865710142552954,0.14967637951251778,0.154434361322865,0.16204886051276413,0.1722469873747683,0.186675429537041,0.2066362412178043,0.23145917170613897,0.2593178689811086,0.2879648437793694,0.31529542294218604,0.33974396310552635,0.36051026201024733,0.3776168875545987,0.3917968997542015,0.40421371099049075,0.41601025898329286,0.4272236605409246,0.43607949177825467,0.4420800994149483,0.44600770096267894,0.4492398109051795,0.45321783626558965,0.4590685852464092,0.4673784051650779,0.47812105275376204,0.49073789395812084,0.5043709969748031,0.5182501231897225,0.5322889685476976,0.54830418783053,0.5677494164080655,0.5901710260994752,0.6140759899337165,0.6376873330842118,0.6594978946555409,0.6786238649775219,0.6949594471101714,0.7091294020095267,0.722241704851046,0.7354404223597414,0.7492573464916671,0.7625787532990141,0.7731974559521984,0.7808999321083412
0.3916814971160447,0.38170776766308473,0.37280501863188104,0.36509794101676574,0.3581129507074139,0.35116715213482796,0.3436608421553595,0.33527263876315905,0.3260588335465058,0.31645508824695107,0.30718225741865035,0.29905442093043305,0.29269143314282725,0.2881870564108112,0.2857954938803281,0.2856447564312285,0.2869551347741702,0.28849700189926747,0.2889987928310392,0.2874447446553993,0.28326603404620715,0.27642265150077866,0.26737742811788756,0.25696204404179657,0.24613355391694253,0.23562435866402728,0.2251980629053861,0.21368877655090648,0.2015083362813591,0.19021091232699858,0.18161128593129183,0.17714167035352973,0.1774489794623094,0.1822319580577381,0.19031802745682025,0.19997943135633825,0.20949031750506306,0.2179224605585395,0.22601700054787877,0.23345420320452925,0.2381960005729732,0.23939523598380952,0.23726069606086794,0.23276998944569335,0.22738911411491314,0.2227934161202119,0.22059506604472842,0.22207073074683656,0.22790064500493443,0.23790009136520235,0.25076755264972267,0.26503942315231527,0.2819350772952346,0.30126666082106435,0.3212770754972237,0.33966117346040553,0.35433444497421573,0.36394368273142996,0.3681249931039143,0.3675050777160789,0.363449410363921,0.35755351338114033,0.3508808852416149,0.3430687063978197,0.334253836689168,0.3260005402625463,0.3192455740799743,0.3142901201085759,0.3109173971472614,0.30852567594577923,0.3062764901232918,0.30325888506331755,0.2986688748136592,0.2920038994984727,0.28327343055585524,0.273224503254806,0.26247471394548183,0.2491193515443375,0.2328043112033345,0.214904245225492,0.19755911275864227,0.18292950018049436,0.17267405647144796,0.1676460166207139,0.16781103445972817,0.1723843964599475,0.18018991112178248,0.19023756905483932,0.20256156996214453,0.2191479865333726,0.24117464579994935,0.26769018086248086,0.29657482040639893,0.3253704333143872,0.35190332454312273,0.3747034439027715,0.39321828676917236,0.4078209008665585,0.4196130365850408,0.4300242158796569,0.44020414439861594,0.4498120609146265,0.4567451780127497,0.46057964883813285,0.46239782319988726,0.46392713395650187,0.46688064508695515,0.47249822550898485,0.48128923659183676,0.4929761669537961,0.5066398755465239,0.5210655386777892,0.5352894676534278,0.5493904372845797,0.5654649812128655,0.5849427251397452,0.6072387101190209,0.630716659781159,0.6535040122281148,0.6740839947635641,0.6916603352869558,0.7063020068610316,0.7188597667663251,0.7306595919255306,0.7429725835065939,0.7562595220907623,0.7691171213624185,0.7792147240437924,0.7863091973424903
0.42667262667487005,0.41756535682861884,0.408940953346137,0.4005465495795121,0.3917598073568077,0.38196378942278614,0.3708093280385716,0.35836577463621133,0.3451602708909411,0.3321043206650082,0.32030960959415666,0.31079065563540315,0.3040566706410904,0.29968366129082813,0.29776353470945194,0.2987434990050596,0.30192287525129824,0.3059533139146069,0.30931772495666326,0.3106935856003676,0.30919996666444366,0.3045292661090366,0.29696288084823463,0.28727164680089484,0.2764989356349384,0.2656298745561728,0.2547256373374635,0.24255513231354914,0.2294622849776059,0.2170188170134759,0.20710405214485597,0.20123176052454972,0.20012423695116555,0.2035344428846407,0.21031516259090505,0.2187353931139911,0.22704472481420115,0.23428436987157022,0.24118301874651474,0.2474661950215973,0.25116164258952245,0.25146531447078535,0.24860769859970158,0.24357079758394354,0.23781091826373502,0.23298319444657362,0.23067267618022175,0.2321253702038517,0.2379906314783538,0.24805659760360899,0.26100144151382093,0.27533141001298955,0.2921812204426442,0.3113100224316853,0.3309528086085022,0.34883177134347076,0.3629137004547364,0.37191038271737903,0.37552517659593976,0.37444399240839826,0.3700717153858239,0.3640132782727065,0.3572995055225807,0.3494962732820398,0.34088640650416346,0.3332517316864618,0.32752557605628263,0.32386156975709274,0.3218268949198624,0.32059704821167045,0.3191496147419321,0.3164594700076172,0.3116927612923221,0.30440225607702603,0.2947219581231594,0.2835626755816659,0.2717173972839626,0.25751875955016335,0.24087602697973318,0.22337713010934043,0.2072753924129094,0.19471877982099373,0.18722257596361874,0.18538575165674492,0.18885041835927938,0.19650404825863704,0.2069257547637672,0.21907511992842327,0.23324231639348728,0.2515649598581901,0.274986141919052,0.3023105085019827,0.33124545895806173,0.3592707607820361,0.38427888473718763,0.40498817193140296,0.4211284178587578,0.43339812887346424,0.44319343278799006,0.4521107398833568,0.4612197459565015,0.46983003992552913,0.4757165814220964,0.4785758419791126,0.4796835211721305,0.4809389444248235,0.484140984687321,0.49049619607029055,0.5003569950631716,0.5131939436475798,0.5277970413863764,0.5427107940560769,0.5568991334317647,0.5706672418205588,0.586303615784962,0.605125505342721,0.6264302481799948,0.6485130891856975,0.6695046520872266,0.6879710026552249,0.7032709513825224,0.715678413235329,0.7262605727368853,0.7365198245499089,0.7477941557711767,0.7604194118783746,0.7727009866016256,0.782260181966831,0.7888742483022447
0.46241808121455474,0.45364906132189836,0.444852258747581,0.4354803683940259,0.4248283143173871,0.41237587533907993,0.3980108832682359,0.38213425089761405,0.36564658871510375,0.34981577564682353,0.3360265457069633,0.3254108211863767,0.3183599580014953,0.3140394565464578,0.3124044495449169,0.3141347201731965,0.3186012477692078,0.32438800351556346,0.32981657778975104,0.33335152353940417,0.33388657435366953,0.3309118836962082,0.32456187031414024,0.3155446584653126,0.3049506596661347,0.29394426273495877,0.28279458589163875,0.2701471158445735,0.2562308880781642,0.24260004841174235,0.23118381649547612,0.22358711286839378,0.22064139797645166,0.22220726103879024,0.22722695235388182,0.23402812841356244,0.2408783948392575,0.2467905250857873,0.2524217588421489,0.2575324784888506,0.26027651033553595,0.25991632716768753,0.25669493972308444,0.25156505750188185,0.24592381526711848,0.24135033121228452,0.23934839142270473,0.2410903060612224,0.24717135989443545,0.25735764745881806,0.2703498241485934,0.284700688397791,0.3015180567108703,0.3205333967301276,0.33997792959635953,0.35758801822070346,0.3713569992999924,0.38003022462833635,0.38334589926276086,0.3820205692295239,0.3774797225786488,0.371333393937518,0.36459596700307195,0.35679672594843026,0.348283209083363,0.3409384139754682,0.3356963513579357,0.33264405837647637,0.3312501458552645,0.3305868766683035,0.3295454456687553,0.32704504703838383,0.32223503334580894,0.3146904836555689,0.3046010708388384,0.2929540336462586,0.28065677490502444,0.2662759584533903,0.2499261325472105,0.23331569562781818,0.2187248720062078,0.2082370363108573,0.20322352095926724,0.20408207752967708,0.21022882115649774,0.22034260827977495,0.23286426443005329,0.24674792802527254,0.26246470546708006,0.28213534450696137,0.3064046962905259,0.3338852195474469,0.36222023495610967,0.38894663157092,0.41211791901373623,0.43069079274667504,0.44467338770980336,0.45503543697065524,0.4633797739343485,0.471378025038186,0.4799657770455694,0.48817171551886346,0.49384038533264324,0.49682164085965763,0.49848008477876915,0.5007211636956092,0.50526195675688,0.5131474957639726,0.5245110290746786,0.5385816315177042,0.5539346343346271,0.5689885270615098,0.582746035007021,0.5957842873138289,0.6104906112172878,0.6279846381085558,0.6474605634216771,0.6672169946501998,0.6854827118426273,0.7009952186813473,0.7133331582256461,0.7230033988792652,0.7312810207905878,0.7398032645606029,0.7499168563964966,0.7617801499553232,0.7734039723601954,0.7824324498499559,0.7887110856933732
0.49760763190906016,0.4888285036057862,0.4796017979792052,0.46916070157285433,0.45676402324525256,0.4419981214330149,0.42495918737795146,0.4063157538722803,0.38725163472627594,0.36928905237480686,0.3539921428074143,0.3425508530787593,0.3352447370782488,0.3309282878364179,0.3294420165882962,0.3316200811868239,0.33689175425387186,0.34381035905831253,0.3506031865823507,0.35560134746341704,0.3575498883590851,0.3557983924333169,0.3503719541148858,0.3419225891552815,0.33155990826179876,0.32056373950733097,0.3093307848004314,0.2963466759206848,0.2816995118889494,0.26690344122733434,0.25392539846193607,0.24446284594061488,0.23947249655488645,0.23895115247384688,0.24196739052213695,0.24694448477671377,0.2521951766555024,0.2567074625265481,0.2610354459294639,0.26497263486717576,0.2668388255143357,0.26597860900116654,0.2626413673163325,0.25772771705045355,0.25254320318373114,0.24855362840540918,0.24714577724720366,0.24938977574856827,0.2558114840112849,0.26615863955778346,0.2791823795709087,0.29353611210355074,0.31034640124898,0.3293395517392929,0.34874617444221284,0.36630514659393903,0.38001491897965856,0.3886269461242143,0.3918860972665918,0.3905144841234775,0.38594165916356266,0.3797784137528406,0.37303634874303765,0.3652377667833151,0.3567409347840712,0.3494465726429521,0.3442889229969153,0.3413439038162768,0.34006324577200375,0.3395014894080517,0.338534658188981,0.33607215751646,0.3312598614025911,0.3236762786465842,0.31352049253040404,0.3017928138539213,0.2894629177087283,0.2753101725100395,0.2596058690498497,0.24411538086361353,0.231093862244475,0.22253588088328874,0.21968114550111084,0.22277479058601546,0.23108334113669168,0.24316479511375344,0.257394507952444,0.2727462444527398,0.289808478733741,0.31057984290497015,0.3353857833909447,0.3626895227439986,0.39013898310148976,0.41539495725989145,0.43671791674840255,0.45331612379540637,0.4654543118087254,0.4743222127217622,0.48166321498250664,0.48916478848008516,0.49760763190906016,0.5058063889939644,0.511799765657581,0.5156071434098759,0.5186119785057918,0.5226184380143687,0.5291554756824732,0.5390282446095556,0.5521163684319116,0.5674206562007601,0.583356186025684,0.5982930039661891,0.6113443588358802,0.6233826787121227,0.6368269090781976,0.6525429908087017,0.6696313325717776,0.6864426835923544,0.7013662158880543,0.7133703848831161,0.722295579757955,0.7289012731468033,0.7346636423811508,0.7413273361228834,0.7502089575002903,0.7612537284023139,0.772175736772917,0.7806883382283744,0.786736217617324
0.5327967248987606,0.5238661718263383,0.5140981410154573,0.5025335250156303,0.48841344010614063,0.47143718796127493,0.45190157489022165,0.4307217030778366,0.4093331514394096,0.3894757017090673,0.3728581734165635,0.3607052442571595,0.353184775942391,0.3488743561985241,0.3475108108654385,0.35005901828837055,0.35600371270609044,0.36388075137211356,0.3718448760056934,0.3781184221716797,0.3813205616035516,0.3806776877426995,0.3761148468502635,0.36822778750037716,0.35813537214012614,0.34721394963167335,0.3359686429977707,0.3227230809279705,0.30741503997972136,0.29150271883977424,0.27697563213793697,0.265614568907495,0.2585012503762944,0.2557776504721024,0.2566553940279361,0.25967431727774853,0.26321084973739217,0.26623629070362725,0.2691905738295182,0.2718978184153464,0.27286414921049706,0.2715306781344626,0.2681575768038427,0.2635890725772867,0.2590257190554691,0.2557998888228926,0.2551577839061129,0.2580441558444095,0.2648980106757754,0.27544326086185983,0.2884963183934254,0.3028379309028321,0.3196072829305059,0.33852207435820997,0.3578192995100142,0.3752529093670277,0.3888397483448662,0.3973487797028449,0.40053814001656235,0.39913732530689167,0.3945762786172911,0.3884595970420601,0.38178734727184016,0.37406728304572545,0.3656379472483861,0.35838319182972267,0.35323086376488494,0.3502592610891744,0.34892882917304485,0.3483068876786062,0.34728391133679387,0.34478323198080874,0.33996184279814795,0.3324041478259095,0.32230768025245193,0.31066147303125174,0.2984669110427887,0.2846990040441088,0.2697617650151831,0.2554514961308199,0.24397889939350573,0.2372435595929703,0.2363627402608473,0.2414531256087474,0.25166646047573765,0.2654777456844662,0.2812275266940766,0.2979174821949169,0.31622467354540434,0.33799118560630437,0.363226196884639,0.390258486774699,0.4167582279700941,0.44052392138628266,0.4600287888999042,0.47472901464967837,0.48513307739741873,0.49263145535261726,0.4990870135556052,0.5061877677084891,0.5145589002371472,0.5228285229941618,0.5292715374155492,0.5340894327848654,0.5386718329293,0.5446956614564318,0.5534717239003538,0.5655386594810023,0.580503598804724,0.5971316421022804,0.6136811676662288,0.6284872346007843,0.640792268220972,0.6517807109183321,0.6638834878365741,0.6776829947749884,0.69218371768006,0.7058050492920003,0.7171230516543917,0.7253657171240769,0.730660543951525,0.7340368187021259,0.7371794320984303,0.7419372186213941,0.749583354367412,0.7598299125005115,0.7700824024878832,0.7781503833930734,0.784091660281583
0.5685428629442874,0.5591034336697126,0.5484841390516474,0.5355880010354137,0.5196842267698578,0.5006095180510597,0.4788574235008056,0.4555558656420849,0.43233279958036647,0.41106995809230396,0.39354472183606853,0.3809603906411646,0.37336387009600425,0.3691191645566679,0.3678910632294655,0.37074418749072996,0.3772221141089569,0.38587015957029747,0.39480801150867606,0.4021867133885222,0.4065295264271187,0.4069571935914102,0.4032976117720016,0.3960796375114646,0.38641021462376374,0.375737148845212,0.3646693340319414,0.3514021316789628,0.3357052491393441,0.3189241188413561,0.303005743792522,0.28976363586831655,0.2803821764329724,0.2751611438255451,0.2734991749596268,0.27411696659716717,0.2755204237892451,0.27670288889602773,0.27796930316677043,0.27916109324611277,0.27902365975001064,0.2771455321615374,0.2738298453216515,0.2698686604466984,0.26633078538629357,0.26436014039991146,0.26498730583185737,0.2689498577184946,0.2765314021624367,0.287401634965503,0.30047999441868656,0.31474689729846267,0.3312743859017351,0.3497309965114838,0.3683929884213134,0.3851035955629535,0.3979872412893771,0.4059138829507963,0.40871819146892924,0.4071702216130992,0.4026999957622638,0.39687402997095,0.3906249923715866,0.3833777189008015,0.3753557769962594,0.368341041977316,0.3632233163957331,0.3600949345674975,0.35846863005998153,0.3574883362169143,0.35613163814771087,0.35340560935668724,0.3485336407417132,0.3411356176163671,0.3313997359909863,0.3202473495352209,0.30861960917721815,0.29563293715056377,0.2817599289232039,0.26876025808008874,0.25875207260941147,0.2535258404753998,0.25410235324226366,0.2605335329430775,0.2719468111376691,0.2868323478318267,0.30357378596912876,0.3212223462080121,0.3404700049808047,0.362940247333424,0.3883568880838275,0.4149457413533826,0.44041936330063797,0.46271876580912397,0.4805179704304632,0.4934937956160814,0.502360048028979,0.5086653749280976,0.514355264318056,0.5210995812354993,0.5293828817377687,0.5377081507192873,0.5446576505980627,0.550652292815465,0.5570939203912935,0.5655143278935707,0.5769715152357846,0.5916935109517653,0.6089687122271481,0.6272851797283494,0.6447158846855341,0.6595516475078351,0.6711816580816705,0.68114905290013,0.6918681698847912,0.7035614657763255,0.7151236750117197,0.725075153908428,0.7322382707224081,0.7361703577772273,0.7373529693495475,0.7371383241042143,0.7374514674235745,0.7402495938754752,0.7467379439577937,0.7563413719153503,0.7661196064920166,0.7740555243041496,0.7803509792734665
0.6035337056747682,0.5930609681352506,0.5811682777224844,0.5667184454889933,0.5490799242421653,0.5282555792140796,0.5049145160908016,0.48032725704369855,0.45620423501196183,0.4344375032527555,0.4167455709065543,0.40422194967698,0.3967861445456673,0.3927058038531568,0.39162916009728044,0.3946639504469982,0.4014134546855644,0.41047498456497344,0.41999592801394586,0.4281216773682525,0.4333349289939956,0.43468707442607235,0.4319213290634398,0.42548756790752595,0.41644827637890713,0.4062771724085877,0.3956740073078492,0.38277893116676304,0.3671832685190782,0.350036718910273,0.3331379645801414,0.31824210206558395,0.30658417760137685,0.29861999194048966,0.29398383284103013,0.29166221981020607,0.29038528443168005,0.2892340653062492,0.2883676972405014,0.2876237255423302,0.28604438765053364,0.2834337370867438,0.2801889395670498,0.2770673195644662,0.27498279762261046,0.2748272756326164,0.2773209002318745,0.2828863953727826,0.2915569354996042,0.3029007524129953,0.31598392081799637,0.33007582179127937,0.3460666362539115,0.3635224112289464,0.3808091405626835,0.39596737167690443,0.4073564586468713,0.4140646535011073,0.41608891097697687,0.41428180086604094,0.4100674686175616,0.4049248011754738,0.39963910403320196,0.3934602234263425,0.3863611852850566,0.3798941947603028,0.3748625542984364,0.3713900883060255,0.36910715438258573,0.36733021006966193,0.3652330798861123,0.3620112896612809,0.3570379546888354,0.3500127595894161,0.3411029191851009,0.33107675506968487,0.32067703060065417,0.30907914480139614,0.2967268638398753,0.2852404627256436,0.2765722660474234,0.27238188701707017,0.2736323853660618,0.2804067094105182,0.2919444100792896,0.3068990052744193,0.3238149326888329,0.34182594631139723,0.36152945465900527,0.3842536316374154,0.40950632252668284,0.4354669790027982,0.45991843627142875,0.4809403968747379,0.4973730819876334,0.5090537946682052,0.5168253094914453,0.5223154633700919,0.5274884568068736,0.5339692639140063,0.542138278577843,0.550476833204167,0.557940607150428,0.5651967295807756,0.5736650557247667,0.5847216109998353,0.5991494917108805,0.6168374267684518,0.6367242977636568,0.6569935170447316,0.675512460946185,0.6905201743096128,0.7015624552974974,0.710568157396163,0.719891567656777,0.7293218977598291,0.7376389677226083,0.7435056692415634,0.746055780716484,0.7452465830322409,0.7419750555519373,0.7379585067037765,0.73537961475072,0.7362950487715594,0.7418086707012389,0.7510087569792049,0.7605918750488829,0.7688075908596521,0.7760257787157647
0.6354505846269577,0.6234206132863576,0.6098793006797856,0.5937725282305001,0.5746453495678339,0.5526855945382806,0.5286948842858785,0.503986650426039,0.48021152028103414,0.4591097908843169,0.44219101044328574,0.4303411795084558,0.42335624412368056,0.4195585025832127,0.41864880512926217,0.42170451563993183,0.4283843144880683,0.43738457295092026,0.4469544175812544,0.4553144965388729,0.4609788406608252,0.46298082622088543,0.4610027603139323,0.4554090949679616,0.447182540707411,0.4377648646165332,0.4279252731850796,0.4158554449100638,0.40098039881003583,0.384171562114521,0.36695906639741743,0.35092417801343323,0.33727228392598335,0.3265867929876597,0.31876378789954457,0.31312692742544734,0.30872344103790555,0.30480047146280115,0.3013872751912669,0.2982936179009008,0.2948883673847807,0.2912496508017475,0.2879252492623751,0.28567138874814635,0.2852451740337693,0.2872463082628924,0.2920113692408896,0.29955634612228094,0.3095767370544238,0.3214887670208822,0.33453231649796605,0.34833261679137556,0.3634866858432368,0.37941171286856956,0.39461797247365743,0.4074510082541142,0.41662881956490555,0.4215681012998621,0.42250532206941743,0.420408393275982,0.41668184619224263,0.4126635824767459,0.4089139670708367,0.40442683055314077,0.39879423588782575,0.39320541000732623,0.38832660633393146,0.38433052604464835,0.3810327690276553,0.37802180373871835,0.37478066785746406,0.37080209019992255,0.3656952763008898,0.35928556600679384,0.3517067311752971,0.3434856327560215,0.33502260988503724,0.3254650012298223,0.31512459530351417,0.3053737253714537,0.2979212048606639,0.2942720404026162,0.29537137411135694,0.30143272832976464,0.3119503331456296,0.32589562211578843,0.3420974812126214,0.3598074105117535,0.37941574067085315,0.4018988719907801,0.4266525669989514,0.4518814694438225,0.4754648681902923,0.49560250573119646,0.5112426168553322,0.5222946774692161,0.5296257826263946,0.534840443982937,0.5398437220037228,0.5461894116010665,0.5542103251954802,0.5624885024552995,0.5703662063189725,0.5787451213549976,0.5890645644012387,0.6025562679096839,0.6197464032213825,0.6402055150719385,0.662544072700806,0.6846583671807054,0.7042209268593093,0.7194195824619041,0.7299436439668844,0.7380776075967573,0.7460691090804044,0.7532540492594849,0.7583134083243396,0.7600856901509835,0.7580512350120595,0.7525931723429711,0.7450342812355091,0.7374500760009675,0.7322582144464428,0.7315839603441627,0.7364020174358434,0.7454541979317699,0.7551106952357788,0.7639529417944977,0.7725139501101275
0.6618789116673178,0.6478924536756356,0.6324770778992584,0.6147899972239899,0.5946203623030124,0.5723431981453166,0.5488316224368409,0.5253274401866479,0.5032702256915541,0.48408461071217695,0.4689260790384674,0.4583852838458179,0.4521501848834481,0.44875724662658134,0.44803006354065594,0.4509382466385915,0.45718552970286924,0.46560964461406673,0.47463336655090355,0.4826345927359733,0.48823525028568104,0.4905097883773151,0.48911253613670974,0.48432435954037945,0.47701787127329426,0.4685425285146432,0.45970950013069606,0.44888809832758814,0.4353750718779626,0.4197010623731303,0.40301617213879815,0.3866084923452716,0.37155633889664774,0.35851419304763243,0.34763221859063637,0.3386089162165374,0.3308779891297184,0.3239285777405386,0.31770517161025286,0.3119674696135272,0.3063985813543317,0.3013836989910575,0.29767137126992554,0.2960621177920769,0.29718192005969546,0.30133620754049506,0.3084479515671666,0.3180754120783489,0.3295190574610668,0.34200019147927946,0.35493381857040457,0.368325992643329,0.38239749829050307,0.39639063266960683,0.409006429544169,0.4189791398410966,0.4254762290338245,0.42832038228091174,0.42803658699364544,0.4257224070888539,0.4227428891713829,0.4202487519427433,0.41851851793084816,0.4162411680060289,0.4125332220455631,0.408110811090019,0.4034604936552594,0.3988175178055713,0.39423765029439084,0.3896624696804132,0.38497662214732736,0.38005896849008775,0.3748251079426601,0.36926346972757507,0.3634640080958338,0.3576392811588588,0.3517285911567819,0.34477776393407217,0.33687892631387156,0.32906447725424376,0.32273368747398407,0.3192157073157681,0.31946961753063596,0.3239212300527364,0.33243726124286554,0.34443544956180927,0.3591321433561719,0.3759269071546169,0.394912746573512,0.4166962547395027,0.4406850456830894,0.46518411950826244,0.4881878343564114,0.5079835595424397,0.5235532878730343,0.5347752637673455,0.5424249726622075,0.5479747471687479,0.5531924080174454,0.5595404074983715,0.5673724751416248,0.5754888568042568,0.5835628244882958,0.5926736644320257,0.6042764446213315,0.6194952026189601,0.6386635503031495,0.661112823672971,0.6852061604967408,0.7086228753587063,0.7288873589207325,0.7441464559685048,0.7541941627234076,0.7615748296825496,0.7683892608733818,0.7735709430730442,0.775740463848546,0.7739270007949173,0.7679464467314115,0.758571895587257,0.7474960495803421,0.737084913004841,0.7299240664066936,0.7281564714772524,0.7326123437054043,0.7417305557478594,0.7516507642522929,0.7613029164120201,0.7713425919732785
0.6809713413811915,0.6648355138308871,0.6475240806431438,0.628516906077607,0.6078933378392642,0.5862000646498883,0.5643123340484432,0.5432897967370798,0.5242259552653238,0.5080917357845676,0.49557301409422,0.4869023292182539,0.48168414887460276,0.4788098084699458,0.4782846074630831,0.48090182761650674,0.4863960199772158,0.4937764531254867,0.5016968555075729,0.508761868255079,0.5137700490571672,0.5158939458177108,0.5147969601346194,0.5106871249444773,0.5043067802278262,0.49686034032537024,0.4891724245219145,0.47991528152580376,0.46831712110366275,0.4545373839614573,0.4392635732298883,0.4233879233989144,0.4077632727802489,0.39303919603308834,0.37957770714450106,0.36744848099126315,0.35650378266779553,0.3465340810171192,0.3374660944485948,0.32899156182744854,0.3210532273339454,0.3143428965239529,0.3098445126735165,0.3084521990677566,0.3107096357821948,0.31666551040261715,0.32584922915675785,0.33736155467114237,0.3500911918847937,0.36303837924360705,0.3757686145248702,0.38864719498478567,0.40147958997851546,0.4133315568691019,0.42312601250405585,0.4300299158301613,0.43370267954795266,0.4344028946667699,0.43295640712029515,0.4305836104868153,0.42858757203785414,0.4279014420215681,0.4284962629806303,0.42874910521761994,0.42725953849490256,0.4242036082859265,0.41986089899375245,0.41453619929936747,0.40855733569227476,0.40226678731846693,0.3960056602095219,0.3900913207744668,0.3847874497000728,0.38026743777191935,0.3765706842196175,0.37355178538072786,0.3706172506914882,0.3666639383391804,0.36150705763721597,0.35577953499535264,0.35052751272126426,0.34688891819284573,0.34585434666264114,0.34811119751492897,0.35397017297677635,0.3633746641179059,0.3759929387011456,0.39139283795238444,0.40931901141230176,0.43003353474948586,0.45308029292033436,0.4769313055635325,0.49970438543969736,0.5197343469716834,0.5359596970047895,0.5481271537147029,0.5568130177983945,0.5632610410360308,0.5690368667916441,0.575500702204609,0.5830951661295124,0.5909298091251349,0.598892102939495,0.6081459786861397,0.6201543341544843,0.6359903345438873,0.6558960385661337,0.6790888686484365,0.7038135817883578,0.7276449161763082,0.7480343348418959,0.7631058095360196,0.7726984966874866,0.7794689638061199,0.7853441603262549,0.7889699391201347,0.7889610779551106,0.7845304222103466,0.7757724665685087,0.7637563850430564,0.7504297054763562,0.7383303582927859,0.7301101264612745,0.7278671776295959,0.732288239881648,0.741601006979864,0.751856255401527,0.7622957330585509,0.7736279425780883
0.6918633609329737,0.673632453716646,0.654617174724696,0.6346955547806986,0.6142543239311897,0.5939814979362518,0.5746894173864553,0.5571682943707338,0.5420702361815379,0.5298237216463468,0.5205785804330635,0.5141814829577095,0.5101818234168516,0.5079221775138881,0.5076268167890419,0.5098652907934107,0.5143873509505662,0.520387027920823,0.5267822457551113,0.5324495497014691,0.5364130536141006,0.5379889404116678,0.5368845048200344,0.533252266285674,0.527698198508063,0.5212459003075484,0.5147087421105118,0.5071657089488588,0.49784801766210524,0.48655100950395347,0.47346111131263685,0.45900682256002817,0.4437339333407998,0.42820580351140386,0.4129278734365902,0.3982962896764156,0.3845716327304389,0.37187707401303954,0.3601959469665864,0.3491409967097005,0.33882724751123316,0.3302199927021105,0.32455015307113333,0.3228490046739106,0.32563985667077777,0.33278344474641297,0.3434799328055171,0.3564231289784312,0.3701167779495547,0.3833355368259766,0.3957519880011526,0.4080294311756974,0.4195683096715003,0.4292804699825228,0.4363208242650823,0.44028728800211925,0.441319046173456,0.4400902430322194,0.43770251301663643,0.43547349671922075,0.4346237036701432,0.43585965921179864,0.4388547940172148,0.44170907779731844,0.4425229440705722,0.4409186277018864,0.4369613302664101,0.43102414220749147,0.4237104649236031,0.4157699029333825,0.4080073453931755,0.4011862622258446,0.3959240239805095,0.39258147902266866,0.3911455797140153,0.3911054115403322,0.39132197304311545,0.3905287645133922,0.38824583058995243,0.38468786533997534,0.3805336266810216,0.37672194650356006,0.37427526410909845,0.37415047547107466,0.377116671127356,0.38365999460811534,0.39391599976838915,0.40762879910855215,0.42419111599611653,0.44358442254057756,0.4655920931604793,0.4889005966896152,0.5117495111956792,0.5324817263492576,0.5499272761989498,0.5636228414275234,0.5738665617908322,0.5816069603157484,0.5881668893268317,0.5948035845878026,0.6021019928393975,0.6095286499773418,0.6170311762637559,0.6257479628840705,0.6371398937265588,0.6522956593375637,0.6714846586625529,0.6939575618057716,0.7179925687291976,0.7411920263770763,0.7610237042755341,0.7756102315747087,0.7847664758350904,0.7910895639691653,0.7963219476557556,0.7989773678522011,0.7977239890143035,0.7919312281809068,0.7818800794858708,0.7688022692784532,0.7547482174411748,0.7422814614565685,0.734003473381402,0.7319053057336278,0.7365478482894339,0.7460704272702426,0.7565961243070594,0.7675976878754949,0.7797515202390474
0.694841432503261,0.674817628435874,0.6544798632832086,0.6341301001619225,0.6144474875643435,0.59622269528421,0.5801564632751823,0.5667221254356252,0.5560924561753142,0.5481304247783757,0.5424443183186303,0.5385067266006901,0.5358379322698438,0.5342649229098172,0.5342391846429517,0.5360892518755156,0.5395664657924366,0.5440436304481152,0.5487062235257438,0.552715204987796,0.5553407584200353,0.5560681062796904,0.5546745904359761,0.5512784451941093,0.5463581185408087,0.5407443385943429,0.5352236069833597,0.5293453529951275,0.5224145427292213,0.5139071926735594,0.5035216776501987,0.49120332710871073,0.4771421442305711,0.4617442939711758,0.4455769763302903,0.42928621875487305,0.4134885984390484,0.39863652912022934,0.38483606405309007,0.3716163409452124,0.35916187586030196,0.34865033715878535,0.34154568450522527,0.33904417517786045,0.3417107023442395,0.34930357345642166,0.36078965722865525,0.37454574934063656,0.38875615313928863,0.40198896050185734,0.4139728684308864,0.4255824470622284,0.43587047325065714,0.44363616759446073,0.44825429312460496,0.4497074082366555,0.44855126115615795,0.4458100274115136,0.4428045667856976,0.4409117316161584,0.44125562049295025,0.44433047526992864,0.44955503525571955,0.45482194514143054,0.45780525285468654,0.4576152199223987,0.4541158012197064,0.44773895413060644,0.4393373979635627,0.43003114247903856,0.42104781909397004,0.4135572236461385,0.4084988105045474,0.40640347452383324,0.4072089434395986,0.41006889055382234,0.4133471371406627,0.415634190407347,0.41617749211356314,0.41479845194714704,0.4118242067890292,0.40799511552078704,0.404347830703805,0.4020742156501942,0.4023559909335879,0.40617468314866145,0.41409758383614137,0.4260393524094606,0.44108629412603867,0.45902947284514284,0.4799548501061924,0.5027837442226669,0.5258674159046146,0.5475275390606501,0.5664467641222315,0.5819117367912741,0.5939078318735764,0.6030648206671075,0.610454019243814,0.6172382297120576,0.624171822823178,0.6310714603405011,0.6377853063233957,0.6453224961203721,0.6551328676770771,0.6683840198482285,0.6854856289479175,0.7058613408802794,0.7279667497842318,0.7495572590907986,0.7682009550138913,0.7820395804563026,0.7907973163998341,0.7968492724129133,0.8017606036411138,0.8040764434886646,0.8025702895438155,0.796724679062273,0.7868984770220471,0.774339179228609,0.7610416951257343,0.7494503880702063,0.7420082788180465,0.7405502876241405,0.7455427119383181,0.7551669135912891,0.7657685530093444,0.7769431900213615,0.7892522758547558
0.6912646098153197,0.6699596961015853,0.6488155039044294,0.6285279642256948,0.6100239720145368,0.5941566585137439,0.5814925707308933,0.5721903857677679,0.565971300370841,0.5621811567301354,0.5599442618073437,0.5584086377757861,0.557083380975318,0.5562411431068875,0.5565371194446964,0.5580760267453884,0.560601953098415,0.5636423823713298,0.566622577691912,0.5689650193427271,0.5701735736233924,0.5699029968508933,0.5680133778204502,0.5646097384252435,0.5600658221008099,0.5550341389198283,0.5502709148637817,0.545807807848346,0.5410820179426142,0.5353256843089614,0.5278138238958915,0.5180431444998724,0.5058422074463177,0.49141323167652656,0.47530531534664927,0.45831845894429396,0.4413395818623718,0.425110107908973,0.40990132177336175,0.39516144505633405,0.3810435830665138,0.3688592736656819,0.3602665433557032,0.356631891191338,0.3586109213297469,0.3659450488643209,0.3774769763498191,0.39138014427246026,0.4056125728263269,0.4185772017895745,0.4300109241321209,0.4409065015759204,0.4500629136613973,0.45621939419510205,0.4589375199498268,0.4585019711087939,0.4557824508800968,0.45205455204150014,0.44878173688501194,0.4473566851802361,0.448803807410707,0.45344073545423896,0.46050112805315957,0.46776200756211334,0.4725860697408351,0.47366225884327184,0.4706845870018475,0.46412732488409447,0.4550405144426249,0.4448401814434608,0.43509261308872677,0.42729340254773873,0.42263973471380684,0.42179753956449156,0.4246630035472977,0.4301175998653298,0.4361301200324138,0.4411993960347092,0.4443593778026791,0.44510136611336215,0.44344421230199205,0.43993791277039856,0.4356000368409649,0.4317856409483273,0.42999049218962754,0.4315869055220144,0.4374934822835774,0.4477774532074342,0.46130638337334934,0.47778169973158724,0.4976024763222116,0.5199146353686738,0.543165841121801,0.5656446089892541,0.5858831986647811,0.6029264107340883,0.6164656606176725,0.6268375566345618,0.6348874978677059,0.6416996100208596,0.6481901692917034,0.654463068568232,0.6601341775672016,0.6660074090080407,0.6735163797781086,0.6839559672842858,0.6979608555227809,0.7152323280296861,0.7345107079489874,0.7537975828694689,0.7708235181080715,0.7837632845463137,0.792199382169305,0.7981628485867589,0.8030645863222474,0.8056202146657505,0.8047411529200785,0.7999715026885702,0.791642398140786,0.7808853587873513,0.7695054259134836,0.7597126180158275,0.7537137557601234,0.7531628988732602,0.7584711028864745,0.767975715428006,0.778355654844001,0.7892150736082088,0.8009363688283451
0.6832376148497308,0.6612969796755632,0.6399202124101813,0.6201165338403254,0.6029935773885331,0.5894321318732737,0.579872051612112,0.5742088212385185,0.5718011108825164,0.5715891203250519,0.5723240355708158,0.5729079082309434,0.5728449585634348,0.5727484865960111,0.5734259202210028,0.5748071695759441,0.5766269611613428,0.578529322693556,0.5801253271429837,0.5810448072742989,0.58098227259248,0.5797375230158387,0.5772505137766949,0.5736307644807792,0.5691802748611335,0.5644120465658861,0.560061501367451,0.5566017412604258,0.5536389936470085,0.550256335440061,0.5454115239768479,0.5382359728489998,0.5282359528320429,0.5153952352392763,0.5001802046751531,0.4834455419039368,0.4662429615985913,0.44953131088999587,0.43375770176823936,0.418297135270786,0.4031893005069563,0.389796119483461,0.37991117255720136,0.37505208070407353,0.3759918402096137,0.38252530167750887,0.393474418378027,0.40692722918351226,0.42072080426765424,0.4331504312384823,0.44392747534325905,0.45408046335739827,0.4622692203551555,0.46722748463405633,0.4686556792451596,0.46703581922129744,0.4634277444492735,0.45924429201830197,0.45600802916753774,0.45508768855118925,0.4574157216547442,0.46318537754958666,0.47152893641511145,0.48020625820145985,0.4864064152161778,0.48852083214736935,0.48611778504048847,0.47969233961803937,0.47042254184691285,0.4599205264567047,0.4499781009610385,0.44230796927777943,0.4382786169005412,0.438644249806934,0.44327009529145517,0.4508514047802641,0.45910075579146703,0.4664983669824887,0.47194935658665776,0.4747052323080127,0.4745390824124475,0.47182426281209733,0.4675155213191819,0.46303380402637667,0.46005402369148424,0.46019556127400413,0.4646163672113655,0.4735098843366532,0.4856404179999506,0.5007143009841898,0.5194000470105554,0.5410299128276178,0.5641310402265646,0.5869675806832266,0.6079560250893513,0.6259558340982903,0.6404345261454166,0.6515066738975075,0.6598474956882987,0.666481737651515,0.6724457411092734,0.6780204147572035,0.6825072766520165,0.6864723672746386,0.6913332411251405,0.6985368434548017,0.7089849137566975,0.7227068549874982,0.7387790310562596,0.755492921467034,0.7707696676120854,0.782821779659784,0.7910628095976328,0.7971195257406836,0.8022824603515348,0.8055268917073849,0.8059088738294108,0.8029824191556614,0.7969668598286724,0.7887832932034035,0.7799605265611835,0.7724094713599823,0.768067476087304,0.7684113527586345,0.7738394388143635,0.7829232802773315,0.7927270730903067,0.8027633799442006,0.8132022961499971
0.6730372421828169,0.6511273037442352,0.6300568935616386,0.6110358413864154,0.5952765401168619,0.5836630862515045,0.5765414802119688,0.5736309414599704,0.5740564482575825,0.5765020382632429,0.579485846400419,0.581755323802593,0.5828046578384402,0.5834408125927554,0.5845553298955594,0.5859731468130515,0.5874237231891172,0.5886238801122942,0.5893021742223192,0.5892227776954858,0.5882077349036262,0.5861594143604772,0.583081496012671,0.5790997693460714,0.5744808626663934,0.569651906097624,0.5653469727086858,0.5624000921951737,0.5605994448760838,0.5589761429120883,0.5562968671412085,0.5514414491319818,0.5436663108123692,0.5327536518252487,0.5190461374499002,0.5033668521343495,0.4868255538142702,0.4705100702624477,0.4550223649214256,0.4396745250147027,0.4243405901799544,0.4103576961830202,0.3995877922732008,0.39366147928044803,0.3934708909996634,0.3989089916365249,0.4088581087764396,0.4214233933487265,0.4344203423739349,0.4461001878469341,0.4561338033965749,0.46552807246372707,0.4729178202861995,0.47707808539175184,0.4777948938354315,0.47564063598949236,0.471742934770987,0.4675429530938257,0.4645473026076627,0.4640706213614909,0.46697055356747574,0.47337392617570573,0.4823949918989911,0.4918645789617439,0.498933275184023,0.5018280329418325,0.500039454535608,0.49406134309007815,0.48512574801780867,0.4749341548918953,0.46538324245797685,0.458286770514964,0.45509203979820173,0.45659177977305065,0.4626318842830468,0.4718134426705081,0.48174179526910454,0.4909585671757353,0.4983331229175347,0.5029761747652914,0.5044840065796713,0.5030693676592083,0.49957805223866714,0.49539251324591604,0.4922216970330818,0.49177678660310487,0.4953340246745731,0.5031833472168423,0.5141077818043324,0.5278921951639618,0.5453902620629749,0.5660640191588641,0.5885051453831572,0.6109799647838261,0.6318526098742965,0.6498879611870231,0.6644344301616677,0.6754850352742718,0.6836181323163808,0.6898182748371132,0.6951749223268843,0.7000109824742267,0.7032920424199348,0.70535798764944,0.7076158515550295,0.7116653307382244,0.7186716317832951,0.7289861011039889,0.7420132342354016,0.756326603306977,0.7700305048657317,0.7813700132512255,0.7895878772232126,0.7959107456589811,0.8015467395453143,0.8057593325155349,0.8077313445136012,0.8069828567946876,0.8035698191941525,0.7981575758274058,0.79196906511145,0.7866073035333249,0.7837523240419176,0.7847329596379059,0.7899732524635259,0.7983126095989412,0.8071926930882034,0.8159638794502699,0.8245828392969381
0.6622913708266231,0.6409512321510993,0.6205894588557311,0.6025067625579796,0.5879549353857516,0.577808956357859,0.572363331054004,0.5712522984104486,0.5734938680249816,0.5776577856148775,0.5821576707370741,0.5856665212101139,0.5876569634549932,0.5889874380902378,0.5905699005801696,0.5921926410929376,0.5935881037077556,0.5945079500029147,0.594736088385898,0.5941016668071109,0.5924922058364174,0.5898675189919421,0.5862737124043714,0.5818576482887894,0.5768810178417483,0.5717359215128288,0.5671764188141037,0.5643094413540759,0.5631000876156845,0.562605577241677,0.5615137254808146,0.5585615233861035,0.5528345499900061,0.5439467709572899,0.5321009800302051,0.5180293630081951,0.5028150203362517,0.48759407145829,0.4730853814382467,0.45854702451842866,0.44366565598936153,0.4296998862548635,0.41852181340544387,0.41183156057956216,0.4106250385082309,0.4149108459390526,0.42368015876278414,0.43512481109607287,0.4471129116011154,0.45790541392283823,0.46713551343054804,0.4757606065216026,0.4824794964114479,0.4861401568885135,0.48656883710610654,0.4843439248951087,0.48056639559882774,0.4766247776042866,0.47395691393987704,0.47380640534317997,0.47697598518090983,0.48357525086861386,0.4927651947895227,0.5025094558456202,0.5100235941029362,0.5134800930632262,0.5123319542911327,0.5070535720344854,0.49887050335390215,0.4894857272751151,0.4808012057921847,0.47463646521243313,0.47244157233390977,0.475006749925327,0.4821680679594236,0.4925084307851959,0.5036489253072871,0.5142592820947736,0.5232508517947447,0.5296762796718429,0.5330127157962203,0.5333260971220791,0.5313155311226085,0.5282388394236796,0.5257189486713476,0.5254303230727063,0.5286668788545458,0.5357900838095335,0.5457009490332152,0.5583067526862023,0.5745537475795349,0.5939778240923507,0.615225207363467,0.6365972389098004,0.6564743089194486,0.6736207730900234,0.6873708723204252,0.697693812231376,0.7051400957513569,0.7106686571658704,0.7153532353309637,0.7194368165734935,0.7215727967408879,0.7219152819896113,0.7218694382763466,0.7231720539457962,0.7272191164476209,0.7346414528522064,0.7451262615931135,0.7574878553217326,0.7699842217558542,0.7808818680253721,0.7892673862160502,0.7960130030151396,0.8022756497040371,0.8075884917926083,0.811230235330085,0.8126572978846373,0.811743255286405,0.8088946470458829,0.8050432380913509,0.8015139556758178,0.7997695755340841,0.8010314249622388,0.8057763225178949,0.8131098519848571,0.8208055907262708,0.8280156985668933,0.834503999827366
0.6510561214929681,0.6305360189514688,0.6110575671078241,0.5939552683995623,0.5804882382314697,0.5715188534833948,0.567314578535163,0.5674732373287538,0.5709714385366648,0.5763364589730012,0.5819416950964412,0.5864247427845461,0.5892299056849817,0.5911957905413923,0.5932241307441221,0.5951030455848598,0.596574688587415,0.5974092065014686,0.5974160232516971,0.5964550506541297,0.5944470935720474,0.5913846212357259,0.5873422517338346,0.5824870473201835,0.5770880773927807,0.5715267076978479,0.5665878104349275,0.5636045942626324,0.5627125337004997,0.5630303395061397,0.563221483135421,0.5619354607908338,0.5581300115014505,0.5512733433112167,0.5414272829851864,0.5292102721017229,0.5156411707107592,0.5018637289581506,0.4886873451554131,0.4753176459140948,0.4612490390640188,0.4476380546320361,0.43633769831555846,0.42909347621013977,0.4269923548406909,0.43016080109618715,0.4377161709280164,0.4479656492177715,0.45886290186115714,0.4687055538120732,0.4770954110443022,0.4849345143732491,0.49102369704379817,0.4942967490625229,0.4946007693715686,0.4924842185824343,0.4889820940815034,0.4853964971924509,0.48307484678240115,0.48318356235335747,0.4864794633773664,0.4930763299290511,0.502209139703419,0.5119995370224357,0.5197736073641701,0.5236983528339177,0.5232073454273508,0.5187475979651835,0.5115110363125173,0.5031629267169692,0.49556624731009935,0.49050329812318083,0.4893930046728853,0.4930046106374795,0.5011688144423955,0.5124840602775991,0.5246417221046863,0.5364679202147536,0.5469489300057795,0.5551151038484601,0.5603497455454215,0.5625787313291836,0.5623389550386928,0.5607273520095121,0.5592296564494585,0.5594284284921558,0.5625917362483751,0.5691411258434829,0.5781367950528238,0.5896200471579973,0.6045813614596638,0.6226036651340838,0.6423853860787632,0.6622818383612186,0.6807258285238119,0.6965287399071819,0.7090620766840827,0.7183181616192527,0.7248514522106874,0.7296004508013959,0.7335883656369586,0.7369233859278059,0.7379754234733678,0.7367427206871928,0.7346347398484003,0.733513106761562,0.7349797882440315,0.7399123813861049,0.748246831926011,0.7590074596851166,0.7705843887070384,0.7812576009511276,0.7899691026066277,0.7972705317099353,0.8042816905286693,0.8107832225093706,0.8161291902203593,0.8196998735611836,0.8211839356207801,0.8207373377857555,0.8190185647021765,0.8170994023522561,0.8162527339013137,0.8176161571797846,0.8217317899641228,0.8279625559876723,0.8343825066639379,0.83993237881417,0.8441962347225459
0.6401165616687775,0.6206489482749142,0.602209022530989,0.5861065341986778,0.5735758460069149,0.5654634372219901,0.562034801041702,0.5629008761763746,0.5670635243982781,0.5730806704352575,0.5793507441474568,0.58451619308337,0.5879870052357524,0.5905112777487505,0.5929501425451433,0.5951342427443658,0.5968330537957178,0.5978293673069587,0.5979352008633264,0.5970070975734859,0.5949601440420211,0.5917817869518149,0.5875446610040486,0.5824187150441686,0.5766821908744745,0.5707323396492854,0.5654095806232734,0.5622169919649983,0.561435543397397,0.562266759734124,0.5633969366439883,0.563444946826663,0.5612939783525889,0.556306906133264,0.5484260044386869,0.5381556303989028,0.5264294713023725,0.5143616126837007,0.5028070505513353,0.490892965108882,0.47789761042207757,0.4648375393272174,0.453510410331015,0.445684366082995,0.4425357537023803,0.4443303349071218,0.45035288186079975,0.45907922840880716,0.46860119406517736,0.4772867820003033,0.4846985942457401,0.49163600156356846,0.4970134781977839,0.49987551821490583,0.5001034761859119,0.4982163492150991,0.49517128506122554,0.49216150618128507,0.49041445228064906,0.4909872271249391,0.49456243430562935,0.5012413118321355,0.5103366847862438,0.5201625527019621,0.5282019301082078,0.5326414012475154,0.5329038156176593,0.5294056388206712,0.5232930887941463,0.5161758843491516,0.509857631866341,0.5060640897674586,0.5061673578883946,0.5109074442037094,0.5201115216675746,0.5324092808327289,0.5455808900115092,0.5585876674845628,0.570466999019755,0.5802146894291037,0.5871208507655803,0.5909839281412732,0.5922013496896932,0.5917385857209576,0.5909755796056309,0.5914302269424919,0.5943602028918742,0.6002419293338933,0.6082594406559234,0.6185430545700323,0.632117077813332,0.6486256357458714,0.6668438126658905,0.685205538018206,0.7022128965444581,0.7167293278784359,0.7281557391495644,0.7364888959105552,0.742262884744218,0.7463744409044266,0.7497893093241816,0.7525080026328645,0.7526736551558749,0.7501544234984622,0.7463583785171379,0.7432462543635745,0.7425899667005718,0.7454767536245582,0.7520582557887818,0.761546342135489,0.7724533133775666,0.7830785581580962,0.7922400019450624,0.8002028450051883,0.8080797372056738,0.8159050979478518,0.8230994851541067,0.8289510519008444,0.8329467538208221,0.8349790363876052,0.8354264397830865,0.8351088048539069,0.835117299855087,0.8365186577077929,0.839934160811544,0.84499303165794,0.8500531718723285,0.8537858949195695,0.8555747029410378
0.631675423190201,0.6137468208434521,0.5966895236716138,0.5816758906593752,0.569849060916677,0.5620279964969349,0.5585205923710789,0.5590449023792545,0.5627581394072657,0.5683940722662916,0.5745082151055377,0.5798309314124346,0.5837289896406879,0.5867192422615177,0.5895540217141995,0.592181485301158,0.5944298533577274,0.5960832600924275,0.5969136769714286,0.5967113714476371,0.5953138278016392,0.592633667134803,0.5886851759397741,0.5836095775084396,0.5776983992879041,0.5714162909906997,0.5657003513317672,0.562091507615671,0.5609561128710302,0.5616197787354889,0.5628916305393145,0.5634824664152082,0.5623179433367799,0.5587460333470783,0.5526396959004394,0.5443931490940082,0.5348137262277889,0.5249078774487695,0.5154807558564001,0.5055365926081578,0.49410254872798587,0.4819797041239911,0.47083070468378235,0.46239127496981103,0.45791389061582605,0.45783886059283196,0.4616974585641671,0.46824183476597786,0.47581065349065943,0.482914827079857,0.4890646892020821,0.49485766649170954,0.49933026516053797,0.5016824748040218,0.5018605437141288,0.5003643818465926,0.49806063026900615,0.49599911476381653,0.49523526456454525,0.49665638382220517,0.5008132907094615,0.5077561832379566,0.5168756097238275,0.5267375005333786,0.5350654669218813,0.5401085408497754,0.5412946248758826,0.5390044409083324,0.5343181265163455,0.5287599851659703,0.5240402064500103,0.5217950224932009,0.5233237489133478,0.5293231939798367,0.539620651938613,0.55290345592271,0.5670707927505808,0.5811753080682884,0.5942534051040506,0.6052365750420576,0.6133179697493985,0.6181920377037445,0.6201640008799649,0.620132278885616,0.6194421698888922,0.6196108005445002,0.6219241870942965,0.6269058950133074,0.6337866384762819,0.6426879228521097,0.6546493971429651,0.6694112803070152,0.6858813055977078,0.7026250383617654,0.7182477605175194,0.7316706435314911,0.7422998184706127,0.7500879769662437,0.7554897724579759,0.7593106921697669,0.7624474225336448,0.7648596611158506,0.7645845256034942,0.7614097630216895,0.7567246234053686,0.7525296062996585,0.7506870454258959,0.7524119944729765,0.758002510809889,0.7668111679386548,0.7774558926356835,0.788271444971384,0.7980011018114174,0.8066994703903805,0.8155308540883951,0.824788354857095,0.8339385696195128,0.8421475236046302,0.8486735153301084,0.8531285575868807,0.8556091955751394,0.856696726602643,0.8573260890176527,0.858524274758803,0.8610176308379088,0.8647083182758624,0.8681925137167417,0.8697735603731435,0.868611551619777
0.6268353474460365,0.6110267727285466,0.5957966331381013,0.5820622606447979,0.5707980660592773,0.5627723343589501,0.5583713256800859,0.5575117072345285,0.559640266481352,0.5638216683947973,0.5689139944110704,0.5738319837185003,0.577898092842942,0.5812530629605548,0.5844574665055285,0.5876417737581993,0.5907202535572329,0.5934682460761639,0.595579546800475,0.5967222648219951,0.5965922339382718,0.5949651116648377,0.5917464948599872,0.5870201740166816,0.5810941722631963,0.5745455638176222,0.5684298281656549,0.5641566839011037,0.5621023887845674,0.5617649260832371,0.5621959131330473,0.5623458084053057,0.5613242784106771,0.5585743879424883,0.5539613887061595,0.5477755418321687,0.5406492275358726,0.5333892268201443,0.5266381480770491,0.5192450147647026,0.5099718521004183,0.4993248165662556,0.48873262131471956,0.47981878057040905,0.47387616565818635,0.4715391279754352,0.47265878988024684,0.47637462667155017,0.48139316762189865,0.48645620510770243,0.4910217701065693,0.49538424595287645,0.49869067294778224,0.5003326932265523,0.5003560315945571,0.49926332068363377,0.4978328747608599,0.49695131168226764,0.4974624747993265,0.5000305104115882,0.5050189376278461,0.5123839373515144,0.5215834255618687,0.5314801797464135,0.5401099139641904,0.5458221553682988,0.5480640362220992,0.5471767724063223,0.5441577179477991,0.5404204941366427,0.5375530803313675,0.5370745621632452,0.5401893776210618,0.5475394149746561,0.5589554424494427,0.5732052393749749,0.5883322123023826,0.6034388692391809,0.6175079582049847,0.6293725699536495,0.6381209321027754,0.6433632510349987,0.6453590514774613,0.6450060329154932,0.6436907479770424,0.6429994306396336,0.6442910003664568,0.6481311680909789,0.653716350641231,0.6610502096556526,0.6711646802847719,0.6839370488190142,0.698474058561023,0.713535915351512,0.727871058966342,0.7404642147098854,0.7506967365622995,0.7584186194021726,0.763933681576305,0.7678969902015532,0.7711234795290488,0.7736145653923221,0.7734450559434886,0.7703808992534846,0.7657697003227222,0.7615790527722167,0.7596652608253411,0.7612724271692791,0.7667613452449524,0.7755698314972577,0.7864020809042431,0.7976494136447491,0.8080405332634465,0.8175123375245587,0.827333413270969,0.8380366265393406,0.8491010482343238,0.8595403794258102,0.8683663438989341,0.8749120596501407,0.8790137049756394,0.8810528714226891,0.8818570892786542,0.8824598193767462,0.8837201065058332,0.8858011132747868,0.8874659382186881,0.8865811643170503,0.8820928743832458
