2.8342400294767405,2.8090373805954667,2.7191337965751634,2.6181332420754466,2.488433742686661,2.589101253001932,2.7100879021128548,2.7197285798249675,2.7336279127302525,2.620625804242037,2.3990427421348333,2.273292127365667,2.452435878752918,2.6980861996957155,2.7804525773312476,2.717671952576693,2.6981555455567428,2.7268732815117493,2.7837348095531405,2.843280817993802,2.8588562071121006,2.8240663742008936,2.6872202138672665,2.488727809510007,2.2604001944890166,2.261572053451766,2.316576204852423,2.2521400070372986,2.196998188072209,2.166461013837082,2.129424997315668,2.003607112831089,1.9288847508303173,2.069488575165496,2.2148661391849207,2.2619320522773987,2.3181893570074243,2.2068444246091006,1.9898154649047752,1.9152350452132936,1.9989335847437444,2.034956822553649,1.9566010832737812,1.8124759972334088,1.729534963271778,1.7744818868225083,1.8765564561248944,2.116491875491169,2.41759566916099,2.5708348526241633,2.6125960819410405,2.725522402765214,2.8723410085090872,3.0508823771001206,3.3345535552949084,3.356815239085441,3.219785324094383,3.0209548883503436,2.642448911084446,2.427174541187033,2.2061962812628937,1.971540722837388,1.9260133394007004,1.9162572138916978,2.000141452494775,2.075996707229345,2.1241274565524506,2.1279195667829587,2.0613989396436008,1.905040624770585,1.7827967405426688,1.7122253635989624,1.8173664834651533,2.0099519251506424,2.033587367962705,2.0950874487375715,2.1541472235042334,2.1845611481620333,2.3893726458660947,2.4788261645614686,2.2831719533039934,2.0718132868035273,2.0617218758376015,2.1123305143444258,2.024762127517955,2.080506255064942,2.25745572648235,2.3010595341044637,2.276251556979336,2.211922123885609,2.0662527825546237,2.018518981395984,2.1723289323548642,2.20521120490185,2.110520488295496,2.028318529703881,2.0152229230461915,2.103399970272712,2.2726680443021494,2.5186550310882305,2.507978499577023,2.3571714232950023,2.3300130192698076,2.3576359752552833,2.3134890078646695,2.070758371056225,1.8903683200320986,1.7774977786911748,1.5757537184120474,1.495733285131627,1.5150487791432585,1.5873975890617116,1.689836684263278,1.73411078078482,1.9018798517055386,1.931750358700075,1.835623800010099,1.8538209732697533,1.86397571873675,1.7578070570753543,1.6681837360147937,1.687725939932532,1.7560185216382687,1.779379883543482,1.802328346655447,1.836517102942476,1.810018107997332,1.6828734514328574,1.6639875099079828
2.4333631546263383,2.404375516030724,2.306266039755543,2.2102313880800106,2.103182227311873,2.2320846110936574,2.4767958982398173,2.594985558041669,2.5278617628258155,2.346822726122945,2.2553745936654632,2.200683975504406,2.2818498251851995,2.4678887251852917,2.479033460001346,2.4064736736127212,2.4479350473892576,2.542519239543076,2.571418949011823,2.6241534186930613,2.578406286653525,2.469106463440942,2.3542785193981834,2.253389598079286,2.131835328159843,2.1148309469397,2.1756999026397175,2.1724457939345587,2.098622595942121,2.1666913454020267,2.1566331935838097,1.9947858502739146,1.9354914729081663,2.0636963812295837,2.2529346791377995,2.3521271649912885,2.397901830543711,2.214546446156724,1.991483639556957,1.9897788030304735,2.0639012981004905,2.040269632797339,2.0000481947796995,1.9227866640190956,1.8838172735374503,1.9433487953427604,2.1041913194270143,2.33987823982987,2.533186610632282,2.5683582910650617,2.5859667963349167,2.6992385402921864,2.912983442102336,3.129868559610768,3.341203752121676,3.3464406708012753,3.169443316304313,2.8843887238049053,2.6010074861172465,2.409477186532737,2.1365562773425966,1.912595731649448,1.8486887561534433,1.7363014687815532,1.836524346260152,1.9591391388188066,2.0365815595640724,2.0685399974072487,2.002800974618079,1.8804617324098183,1.686550800696819,1.5618581259085131,1.7312697378551307,1.9307426766570224,2.0587118765859787,2.137257129554544,2.1585773824258885,2.155734246652363,2.2866540743765826,2.3322392707688997,2.211829407935072,2.114280514167796,2.1339671827540405,2.114126556560025,2.0038131243632225,1.937496521203729,1.9945903845967168,2.1601466776282208,2.233553698409804,2.123245252023817,1.991113785069569,2.032037758108872,2.1993850319393204,2.191339962116855,1.9870104010776395,1.9430587657784468,2.037468235157633,2.1369679747915327,2.23644978610097,2.4212856051737,2.395118407612418,2.3045331799016577,2.3053537676428593,2.283897175643418,2.292766840780389,2.192229175840175,2.0065899793271558,1.8988856155755791,1.881910039716239,1.8594755701448376,1.8338334240578662,1.8766467155814242,1.961117499644736,2.0149078906773186,2.09402501322425,2.1051387394418626,2.095474428179403,2.0706591761955133,1.9760295166382718,1.9344645248275252,1.8748795241828995,1.8007772079866127,1.8674334232979117,1.9645374439596535,2.032843614307464,2.052239363685229,1.9810310868648637,1.775084239932998,1.7313168787914797
2.125412880239668,2.1007970272919603,2.0242294987615264,1.9680618375091703,1.9527959072642789,2.125412880239668,2.3732374432857872,2.4339950450363665,2.309283742453628,2.127010914473755,2.125412880239668,2.0472473151559507,1.9426299702777583,2.074277124317388,2.1513887068988833,2.125412880239668,2.125412880239668,2.125412880239668,2.137720777955473,2.1979344388318296,2.125412880239668,2.0528913142260747,2.1131049871622585,2.125412880239668,2.125412880239668,2.125412880239668,2.176004504185851,2.175460539191974,2.0876731208585255,2.147342813030289,2.125412880239668,1.9776838874268503,1.9618739068416133,2.030417414586219,2.0759091899919553,2.125412880239668,2.2514840266588525,2.2193202452124265,2.0438134185487886,2.071863262726917,2.125412880239668,2.0719317217268154,2.0740561177818075,2.058378186736945,1.9966215711759416,2.024766513584293,2.202617711259449,2.429698124939571,2.576182320955503,2.620314371267706,2.65665970664979,2.706016741978864,2.809964465886512,2.9811257843377565,3.1267834999954434,3.1329140778361575,3.018247609311831,2.8237354377031485,2.5978226527695107,2.417585872870691,2.125412880239668,1.9002023854204364,1.801514096817212,1.6196226938011242,1.5867201607446557,1.6491584199961165,1.7548064533567003,1.8532813461029065,1.8035027140622275,1.7774183693682946,1.5941660538295466,1.404727232538194,1.5135522622142745,1.6989706265953668,1.8705932315767921,1.9604358411114147,2.0145734512636486,2.077778385263221,2.1588179073277467,2.1956137199242383,2.125412880239668,2.0200726210874174,1.9252222444304452,1.8709542100314547,1.9078481525131596,1.8597894670346073,1.7999328271342754,1.941766887416668,2.1262291665072603,2.1678193399906744,2.125412880239668,2.125412880239668,2.125412880239668,2.1131048415166545,2.0528913216475067,2.125412880239668,2.1979344388318296,2.137720947720731,2.1377209189626822,2.1979344388318296,2.125412880239668,2.128099381355733,2.2643359134881886,2.2204081455144524,2.1749165964623933,2.125412880239668,1.9747251851135217,1.9303218814600782,2.074277480546126,2.151388740295327,2.125412880239668,2.125412880239668,2.125412880239668,2.125412880239668,2.125412880239668,2.125412880239668,2.176004864125305,2.1754607358599234,2.0876730614870693,2.147342447524761,2.125412880239668,2.002299330340438,2.0630569691981777,2.175460739570639,2.176004875257453,2.125412880239668,2.100796802793641,2.024229632347303,1.9680617187662577
1.8762397539338116,1.8509139983377774,1.8542577690741862,1.8464908842104908,1.8722493983519255,2.0205602462799255,2.168838295189003,2.145548796865638,2.0680962365888416,1.9248723090666655,1.894268059928717,1.815528076004726,1.712413541429892,1.7650529574095,1.8287273600680825,1.8256481485412093,1.8175653778439558,1.7717445955128062,1.7551734876999114,1.8131806473632053,1.8145894726511471,1.7918430209194436,1.8932499730379373,2.021587261153455,2.153554531242908,2.1952267367716907,2.239207590248844,2.234914403132367,2.1610952108578756,2.157499400867791,2.1379588250267076,2.0287997427791025,1.9781287874350761,1.988758370967168,1.8736309127699424,1.8859656445286634,2.1230027692554176,2.259074474397113,2.131727382966911,2.1120406508346545,2.1281472941210144,2.0920455206299335,2.152901215158566,2.172019347317112,2.0707875781020375,2.0961797518041574,2.2829444418832257,2.441057101655897,2.550180888500375,2.7177871925734856,2.83678071220871,2.8442451291879847,2.7904661077892947,2.8204390750746424,2.841378675274974,2.8337211229481634,2.790223990990263,2.719517276811786,2.53233448180489,2.3939588830697276,2.114269498907283,1.8270428434225376,1.672666488769993,1.5279341069453887,1.438753548520625,1.4563365240642456,1.5348078966768044,1.596126083718325,1.591118220117359,1.5576169852949668,1.4170285826955775,1.3016342794877467,1.3845222353673925,1.5198072232560607,1.6331807298895296,1.7275659979788176,1.8460185249036987,1.9878393305084592,2.0423942032559843,2.1019695783032475,2.04860151128261,1.8601774595019132,1.644049268690602,1.6241060105851588,1.7546001969173093,1.7314910152729805,1.656309029142806,1.776937134028777,2.0139128547544707,2.225182946463481,2.2760828529860917,2.2063401160373552,2.053550114748698,2.038932602442999,2.093303768772401,2.198338684235314,2.1824982906215573,2.004757464483772,1.9622527115760477,1.9720424413293494,1.8720780523288736,1.8849553649843953,2.115173037849808,2.16959988996688,2.105006003419024,2.000214642657602,1.9220317262657631,2.0383483353624023,2.2515752212158198,2.3922534973572724,2.400561849902962,2.3939325518288324,2.314301476559214,2.214364019935629,2.186403463006432,2.174395378157734,2.1851383945679155,2.2145541792889145,2.214096069131649,2.3523081737188627,2.375946058182068,2.2786141698708207,2.28613199147509,2.330867612012639,2.254559304826742,2.1630565840258544,2.188689167597636,2.2570836158796204,2.2113405136776842
1.5158651960396508,1.4485076850858396,1.5139513571439194,1.5417202184833971,1.5976036611527307,1.6709554330834557,1.7339249778121446,1.7927501574011522,1.8519008409996478,1.8179056950318055,1.751687195782513,1.6932243898773922,1.6286248315000962,1.5478675984462609,1.4780525247993832,1.4658172550729274,1.5532017675713758,1.6343382951741603,1.5947513970177896,1.589113305407573,1.6917116645408221,1.6668483235326397,1.6276802910008814,1.8513614810043548,2.0503004997206427,2.0946870123840844,2.1127807995292796,2.060289502345781,1.9712708498825084,1.931003243136118,1.9698983896115863,1.9576740442331004,1.9323269000699128,1.9680086109985444,1.8505181688382322,1.908892377687601,2.1433121794813377,2.190986805851568,2.0946341866307887,2.1340103263215546,2.1526127255414016,2.0992562619297663,2.17902281915208,2.2315726732897705,2.147588230511223,2.2165886312982392,2.43668290960865,2.499736672748184,2.5133970949130804,2.6408068747159263,2.8035391681364317,2.9053306394920346,2.8640108963246425,2.7186959914559723,2.6574277358092497,2.6931655527641407,2.6661700046437384,2.603534602471438,2.473719833400131,2.3472719899332133,2.044629479216443,1.6879250421114318,1.552846845005262,1.5129418048999916,1.393503474313726,1.368213490020148,1.392670552152466,1.3478694448985535,1.4059021936595382,1.3714669270857067,1.3573914390694046,1.4252002918344566,1.4575710941277742,1.4782502911205149,1.580118232911908,1.7480435991914913,1.8793285539508868,1.955268609678717,1.944066833735966,1.918004501009478,1.8180552517303736,1.6149736712823917,1.483564808293575,1.567199360236935,1.6658290937413254,1.589024841937598,1.5839799899193203,1.7955317101315698,2.026603562922656,2.2252660368166555,2.283036126254708,2.2326280454551433,2.1193223901918237,2.0817134585978048,2.090683929046241,2.1196914510498224,2.0676126412339335,1.9849638224483537,1.9898487574489285,1.9778892829801242,1.8413103684144327,1.7778085585794856,1.999989090494894,2.234297504015069,2.292765311965388,2.133453327437649,2.068391668955684,2.2465550974091157,2.4386701019387127,2.6166585144709464,2.6838252946212044,2.722991219466262,2.6290393333226665,2.4469369538364067,2.4474342788405976,2.4448744191282246,2.405532161057781,2.4713430158877125,2.499175345314038,2.5604980445862418,2.5826419947788146,2.529879472084447,2.426571327190426,2.3622238006453737,2.2980828422398583,2.242355019579074,2.238033749763739,2.290057023612117,2.291613372126247
1.356098091264081,1.2553327961601868,1.280159030008145,1.29040315920269,1.3084050597423795,1.3278864969745345,1.4032473396169907,1.5664081168380388,1.6713207753401607,1.7121932733268004,1.6884332320921365,1.5961911548344945,1.4256302599214081,1.3236282573815568,1.3617362422457537,1.4307620317517955,1.5242102104596416,1.6044079269087501,1.5996965643608405,1.530131919516885,1.5723834383203743,1.5661193934457653,1.5866626298034439,1.7795114506907734,1.8530599202564157,1.8490213847376944,1.8753598986363,1.7838876613675365,1.6269407007690178,1.5582279175809004,1.64344825143788,1.7178609616080118,1.7953274129502386,1.9049230544441302,1.9157785315248035,2.0124509142773834,2.1487315429356117,2.0604702067946414,1.9818945704832844,2.1010930014233415,2.138720844681569,2.0279050149317728,2.0301394225846825,2.0916679255889226,2.024562847224686,2.0639506357807247,2.2422673353594633,2.278720118234693,2.274383478633593,2.3785711077535234,2.574480111615963,2.74237558436727,2.7184518560274245,2.5394746118895317,2.5690857398341,2.695013251857488,2.7198463134229276,2.7170972962505946,2.617137790552404,2.4100548411173817,2.047982563850068,1.6648951807327987,1.514165984958657,1.4737455412407345,1.2813127955195687,1.1796956981312923,1.2029965011510195,1.2194771862358798,1.2921976020996835,1.3138275142231004,1.388175420448616,1.47822102099253,1.3878568925852501,1.3478917091946883,1.5584885582743164,1.8416877630767785,2.029808404451185,2.1311060527908428,2.0738993066334155,1.8410541805802438,1.6211859442470558,1.4215787517394725,1.3679147328517496,1.5036643023864267,1.6236876199321972,1.5644626923275247,1.635300142452904,1.9482483208787356,2.1660637705547323,2.2123327071920595,2.1761148534589263,2.166944594349126,2.1706075497456365,2.1362041572947588,2.1518206268224627,2.179619572792092,2.1421953337389787,2.1166446503082077,2.1574595885955863,2.150416495590289,2.015463481344494,1.9214742134476883,2.088701616307748,2.359537019602169,2.532962809927537,2.434562250244692,2.3017014434477527,2.3033866873936377,2.433861637373928,2.595049857328906,2.6873286855180343,2.780596018769811,2.754967617174987,2.6010511241376704,2.6414317592941043,2.6800531885128938,2.698034605900139,2.806874715926135,2.7610103252602896,2.6189178061855025,2.5545936126227993,2.5431683773611766,2.486776180682303,2.3829180186165733,2.327580125416858,2.2839596047297794,2.22505243315954,2.1967028299196873,2.2322993057012837
1.3471403634144654,1.2694301328724287,1.3504972849284578,1.3323083049297813,1.3026600401392605,1.2807046536920839,1.326289345427022,1.3973125688393484,1.4137393446418345,1.5024236764343497,1.4926931103373098,1.3726981129762226,1.2643271561983755,1.2399492955888403,1.4023198980972071,1.5427751898914397,1.5996085164910603,1.6378187390031076,1.7083039085921807,1.661025467950234,1.5990109427828072,1.5725048529486285,1.6159719429496113,1.666304065392197,1.6216480322918976,1.606207416379534,1.6840459783244905,1.6267072522026143,1.4037655336880916,1.312616930227941,1.5068885880669132,1.7536889638051119,1.8868192576424645,1.898756749829552,1.8636442182101696,1.917226482602486,1.9565177702776455,1.896803102372332,1.8765099534317013,1.9854177766036742,2.0965302270771184,2.032949837264322,1.9099969984760237,1.965455178246322,1.9980510428878324,1.9397897882341864,1.8846987318642836,1.8673801967872858,1.9812480153235354,2.124777692742494,2.3112812505742335,2.503044879982234,2.542943923570412,2.4797321729855066,2.5455724760577922,2.6689814212167047,2.723089657340905,2.730676557634648,2.5875790282323448,2.288483026932585,1.9985255840956455,1.6994532868498369,1.4452515763047449,1.3532569889629353,1.200043246168812,1.0564456013038683,0.9958233071023312,1.055946999813366,1.1736452717566628,1.1976032574268274,1.2367684104429524,1.3671145837343999,1.3571162523691809,1.2969023150444807,1.5242783095200854,1.845221552159264,2.066509033470985,2.207127856520326,2.153676289112394,1.8844108990438553,1.6294065754659746,1.4026889510699345,1.3335828913548955,1.465966218056932,1.5057298947246116,1.4869872758953877,1.6824694286723345,2.0037445354882637,2.1402852695691212,2.1869894110413868,2.1118129297584316,2.0772626291325467,2.138937539365131,2.109378403190432,2.212234707181907,2.2435226483255573,2.224664863713861,2.3166781604858557,2.349089290840905,2.2693076792436884,2.182006023323305,2.163111109287088,2.2850184649682137,2.4760191711620014,2.6825904870718507,2.700366835448832,2.5439755619961053,2.4015707193751417,2.494449169587767,2.5739479355668897,2.680476863225471,2.747756716314365,2.659489765860053,2.6405469464799864,2.7480048890019453,2.781932232766626,2.804338901653587,2.918026809834205,2.8968279938554105,2.7098081438104917,2.652903096491589,2.625152343446301,2.4157887879438897,2.276903737584575,2.32275183078565,2.278497133887473,2.155711357100578,2.1099483812313053,2.129485018147331
1.5485120756050375,1.421046783490496,1.4207238621393596,1.3718108065609378,1.3191494528282053,1.2828886327142484,1.3166164883855627,1.3156091922569766,1.2359179737020665,1.3029994667552647,1.2828886327142484,1.214914489814693,1.3013505432978072,1.3695243524050975,1.4515276142135385,1.5485120756050375,1.6701123287174302,1.8286832767617358,1.928408710493231,1.9096831906434384,1.8141354591243701,1.6855978591365295,1.542468120719151,1.4978405562321757,1.5568436720758911,1.6129562291953141,1.6791250939070903,1.6098375059642338,1.4050670153829365,1.3421441959904021,1.5941660538295466,1.8753511116607589,1.915218391519785,1.810173364355711,1.7779415506417298,1.8409993510402962,1.8693850521256155,1.8888761817480209,1.8878063081044323,1.8322010058652765,1.9054435046305729,1.9211654818746218,1.8321784743975882,1.8862930187390268,1.9066240911974068,1.7725750537586273,1.6594451778963275,1.7267603570017545,1.9161793333838189,2.0994797527897235,2.2810515907973175,2.4792690459401783,2.581817503364358,2.6237232131202846,2.679755559402166,2.766701138723753,2.8110449670207887,2.769304280227812,2.541089218645214,2.1297171605416945,1.8597894670346073,1.6450050303950687,1.4147029433785405,1.3183332140461823,1.2267719789643368,1.085689605848041,0.8978237125500067,0.8001829590799158,0.9353948013343497,1.083660051983866,1.1729039597525648,1.3338888324695133,1.3857296133039085,1.324271843968488,1.4329910143378801,1.681380496791255,1.8828750633678975,2.0217209359874473,1.981222797297447,1.776585655007132,1.5485120756050375,1.295478825006818,1.173944325782343,1.2904951849600463,1.404779301305421,1.4801445374356477,1.7041840638639758,1.9471642871428054,2.054446260089548,2.1790019909030462,2.125412880239668,2.061364400298864,2.1317630610376272,2.1513614887968586,2.3324774096803558,2.37224614776469,2.328110490636513,2.407814667011773,2.431361238175098,2.435969413131856,2.4366903013549663,2.4676728802556984,2.577874199661636,2.6856964454398136,2.72228861765171,2.7023136848742992,2.587733720561888,2.496104980134162,2.5785376460007194,2.6060686949717513,2.7023136848742992,2.751145520300422,2.6329542871549765,2.6480714473730966,2.7060877502406697,2.7023136848742992,2.723155797143289,2.8577392519036198,2.9167163630494497,2.753577553267254,2.7023136848742992,2.690727820137498,2.4671886169719066,2.306241445129746,2.276738462292936,2.1710669029927696,2.109408456279498,2.2086704679637412,2.173208676330895
1.8183606881876124,1.6933123486899881,1.5461150124260006,1.4284287928883446,1.3857365597643025,1.3729463450352595,1.406176727273742,1.4179335224334009,1.3218672406144933,1.3325592680758105,1.3061538128601602,1.2904384258477672,1.421097546085683,1.524698006345087,1.589991706104404,1.6487017050680752,1.8067199939108634,2.087531991196044,2.180081516119009,2.151220670834523,2.0589432100442493,1.8532289507926698,1.5348039781606848,1.44228620954544,1.550736070988788,1.6300848349834194,1.683617197666666,1.6645122942107398,1.5515736834951002,1.5323696890785108,1.7084392755126792,1.8693054053169098,1.8144412814960753,1.6840219922561215,1.7568976347925758,1.8707734536325697,1.901157137810145,1.932838815609504,1.9449125652889352,1.8304597301074526,1.8374683821019877,1.8664094734758168,1.828956533889628,1.8334902570401115,1.7767512123131888,1.6563371118416637,1.6331652933108762,1.7559518771785056,1.8943172937089026,2.0601769043787965,2.2875918613726367,2.5105863907975907,2.676644613831869,2.8247674323575804,2.8758908872562463,2.9195387633418424,2.935463315994988,2.8424260471366023,2.5528262727956337,2.1035805467018696,1.7612071416381196,1.5399928653320893,1.422156436009845,1.3677861342772761,1.2929427138769884,1.1567999271868459,0.9480168167275278,0.7633945048332966,0.865565181680664,1.098553738040251,1.2378823377071593,1.3549157680821484,1.3821124666966949,1.3717996447271423,1.4960748491200602,1.7087427823975863,1.8687023100632154,1.9792019116659005,1.9305073727326079,1.6915254459679523,1.4855028113720443,1.2579494743562953,1.0529443477794675,1.0954376865247069,1.3225748296313795,1.4670049810573884,1.6569562077028468,1.9370445411493322,2.125459831186632,2.1927364455633063,2.137652772590609,2.113438690926477,2.1623333617623657,2.231410017763643,2.447511224248039,2.552639252708103,2.540933427943728,2.5674752000231784,2.59898823320075,2.707483454436756,2.7628746483614175,2.791207597907762,2.8692074424139173,2.9197854517430137,2.78798176856941,2.655180585557519,2.578705014136195,2.5628721606973963,2.5557754608330807,2.537728586415199,2.629697762773687,2.701393249186366,2.6297474566826597,2.597083359394929,2.6068492218227743,2.6048099310397568,2.664949327500998,2.8636888061738954,2.969773605653184,2.8242386701672473,2.7324789563067937,2.7343939826316523,2.5971716744362627,2.3862258696218848,2.228272674159562,2.154533527595749,2.1642006051970033,2.2559673582857513,2.1893978995150567
2.0004595796008107,2.0477105609441915,1.898347888295336,1.6739249558447058,1.5791468565144187,1.5690190953743373,1.5451949329668055,1.5405413388459335,1.5272968137328315,1.5129507699899019,1.4813462750838096,1.5043752162048691,1.5691732830465015,1.6364958835839734,1.81875093677026,1.8746601763373814,1.9099295821873281,2.122261364251499,2.2221327007858793,2.2307112750937543,2.1722310510876244,2.0351591011054637,1.8142219930220134,1.7088263477224115,1.7035640774309473,1.7146085635429393,1.735839647908265,1.7472734920310593,1.71373437821951,1.7574250017536843,1.7812158567741985,1.8005860022114086,1.8171376065008895,1.7331229288081913,1.7212496468511562,1.76140003949983,1.7970312253191,1.8659673342403116,1.9471827813514613,1.984718930033737,1.9934335614552905,1.9807386379137037,1.9034985847774377,1.7903127216317913,1.6947361058992043,1.6632791193764358,1.7301318838940112,1.8022190734900183,1.8472062212024316,1.9748681812661621,2.266966558819406,2.464180027792372,2.6120474599985557,2.8933235936438226,3.018756363321371,3.0411304966502475,2.9854376957272826,2.778316332959996,2.4507315320409493,2.070871681480686,1.6624676006251933,1.3865907962783952,1.351704544122061,1.3319444766452135,1.2655597076323877,1.146916717075507,1.043082748878243,0.9721934674714626,1.0330430356079419,1.2209052478756819,1.3102253885943453,1.3857809102422025,1.5270700741409966,1.6344253634149108,1.805325803686914,1.9698421945281426,2.0653902377473567,2.103446502651633,2.0245215692196523,1.7879042888188617,1.6853236520653356,1.5691395600592895,1.2796869081871785,1.1483969068539923,1.260588951191646,1.3573115250891454,1.4941027074541844,1.900749612133697,2.251628150869164,2.2591665446830618,2.2270296585063667,2.2933501208105236,2.2835859356263204,2.3316234106520883,2.4582287814355905,2.6238472400926183,2.6901303651721573,2.664568756465737,2.7037089140987347,2.787798963855281,2.84166947666822,2.8806742673807193,2.918415692873356,2.929684276547375,2.894273358831197,2.7821267930291143,2.742993878713792,2.7443119844164174,2.5635038136215993,2.440341794349684,2.508900627351462,2.5341802513259055,2.420685270692726,2.372004684051678,2.4642401117062076,2.515088587704747,2.6059885731913948,2.844839140608856,2.956009877154223,2.9085887669026453,2.7928667926271693,2.6997242581766594,2.487529040434663,2.1824513723281695,2.017652276876056,2.1135212840437045,2.1501827000719373,2.0784617804116405,2.0569074518628847
2.1157909017532717,2.2075432266504458,2.09636605201278,1.852270190829657,1.6624185004307845,1.594982173868657,1.5622118016740436,1.6066775195709841,1.6852308544790464,1.7130042874206637,1.6631859358756804,1.6897767487780835,1.7921241447653034,1.8366537166635581,1.9911291029053095,1.9953638907730256,1.9262824405266474,2.018558084921428,2.1292320996858773,2.1983711233147822,2.1893665365432353,2.172714917324802,2.1535195614551124,2.0872843194551267,2.0457624276109807,2.016008288670908,1.9460368380294126,1.8204418655330914,1.765642605028329,1.8400526137971962,1.844438858250084,1.8446351699705348,1.9102646895298823,1.8609832489076172,1.7538513744239819,1.7337972401237882,1.7793560459037538,1.870975257212734,1.9781089870543804,2.056237437556442,2.076419495080793,2.0535452314464124,1.9498106659099577,1.8000244076057093,1.6879772296215714,1.6655729059071362,1.7870995087279158,1.9672849768455773,2.0565378422827543,2.1610799115757153,2.3909005702954924,2.494225012654284,2.5532543113102535,2.8557754816130902,3.144557414142714,3.236804033316768,3.1144644571440647,2.7722523698933164,2.4004894760976603,1.9913934543147478,1.6166399905765625,1.4045434185093069,1.3815024249826064,1.3112759665146174,1.2068608111310557,1.1111596043972993,1.063407854505259,1.0631143220250203,1.1645140605115665,1.3886291964895676,1.4793319203124624,1.585286221330674,1.8453209993486654,2.0130777284278936,2.0948671398166034,2.168127084513279,2.195402787982659,2.1339794095633344,2.0143173228009164,1.8812194754644636,1.8882646557475236,1.8627873990377253,1.609882212670872,1.3926387290518578,1.3734787882558865,1.43486655864426,1.5561159561352993,1.9314358087242853,2.2937543365282798,2.3477297141760127,2.3325398832953095,2.423557602379917,2.4544951777167285,2.4579079380854267,2.4581555170584437,2.5439440357527787,2.5373747325352998,2.416254141418831,2.4624467968668853,2.589393360567218,2.6791673070125617,2.732350001503582,2.7459806785688428,2.7427500401425258,2.849423685725983,2.8651464941704208,2.8705016214196304,2.8533322868124626,2.6283334660780144,2.3947081211632497,2.3566451695487007,2.280614409078418,2.12801219437207,2.1541813732237878,2.3035811140703495,2.3504571646668233,2.4260493630318463,2.6639542025209653,2.7764143683555362,2.71980338785998,2.5651317195835057,2.418353812972966,2.17229981065552,1.8809516805105566,1.7468914070236612,1.863172037017747,1.9394940293243341,1.9385351803041369,1.9852539707555799
2.065628476848145,2.1110600366096275,2.0810350692052992,1.937194157219357,1.8161854664552608,1.7439651066826403,1.7307982988059123,1.7922381973329689,1.8770903391033384,1.909902597860413,1.860465529808167,1.866377264460742,2.0153932300687574,2.085079601241113,2.153129787844116,2.1105762937537578,2.0214565326279845,2.023168612472144,2.1177191312695776,2.2172360621869696,2.2408039848102876,2.2627115252850714,2.3036255981340266,2.2862909733923553,2.256718659537382,2.1609975893407576,2.0143766052000904,1.9340793821901245,1.9423013344239475,1.964745615128512,2.0089296971007817,2.0277032336159047,1.9551107558191225,1.9316470226802822,1.8703970979707103,1.9188860187077679,2.0469990534111857,2.109280607269661,2.1135996590044934,2.1667184670254347,2.213085693108764,2.195523000338922,2.115788153968057,2.0004587335575574,1.9145752353759122,1.901504965487224,2.019654950313364,2.197170573095747,2.300968621561914,2.3786116881439447,2.497891407884547,2.570225285881726,2.672744027891998,2.8810078755940003,3.158654216511849,3.282049714035896,3.1383571342122347,2.778021316193348,2.4548204739261195,2.0552060217737096,1.7722488076059348,1.6909276347738738,1.6217676064050046,1.3745520460724876,1.185045006977779,1.1769779697164606,1.1537645021090375,1.1305155303707115,1.3161253676985614,1.5064465675743206,1.5370444194378468,1.6303848983238578,1.9570316747610248,2.23669857476741,2.381099084993832,2.4347373366694947,2.4265301530854413,2.296965085516716,2.14586228186593,2.0733193068762445,2.08890145320842,2.065394757399472,1.8128593290413906,1.5450235869437536,1.549304922033255,1.6486846357743719,1.7526091454425832,2.0799271087724565,2.37868904915158,2.441498736234023,2.370568354936578,2.3997210907094626,2.444213288275939,2.4199889622525483,2.404716278504496,2.4020056449786993,2.306740625491948,2.1740239725910486,2.2158817473173973,2.3989706948725416,2.472996807804592,2.4674261027973428,2.513458217827402,2.560346113029419,2.584504714850621,2.695907920333361,2.811844522423575,2.7573941879678343,2.5981788518219364,2.34704717991371,2.164865253808078,2.0014595730402647,1.9637839014355454,2.0984084690740468,2.1744465637745476,2.1897531412027487,2.274029476325053,2.483589447447964,2.6138076158795016,2.485733469479999,2.311506268393834,2.1412455815391107,1.855895797869402,1.6944928016710452,1.6560814880363102,1.7145890600195255,1.8400314478730042,1.953476526797114,1.9721516402804578
2.125412880239668,2.1447842594899558,2.1714486057964173,2.1048727311977204,1.960037785182256,1.8597894670346073,1.8981582707065896,2.0103107959186044,2.0699933401553117,2.1421149021138346,2.125412880239668,2.0499333317916544,2.0815531742192155,2.169272586260121,2.2008923990019538,2.125412880239668,2.0253174658564403,1.9803697482124814,2.024229461654366,2.10079699946159,2.125412880239668,2.125412880239668,2.125412880239668,2.137720777955473,2.1979344388318296,2.125412880239668,2.002299686569176,2.0630573328483477,2.163152639620811,2.1034829474490473,2.125412880239668,2.197934446253262,2.137720773317078,2.1131049825238635,2.0528913216475067,2.125412880239668,2.2485260739101607,2.187768427630989,2.075365221287363,2.07482125258277,2.125412880239668,2.1195653952435034,2.0925521483991925,2.0521901892764998,2.021509491967057,2.024766513584293,2.1531140173010206,2.334702829979059,2.4249511988893024,2.5451069444684817,2.65665970664979,2.681401039315155,2.708781255101307,2.8360826819962974,3.0266881524051037,3.1329140778361575,3.0431354707314897,2.817547507035592,2.5917026133623002,2.320176371223118,2.125412880239668,2.0564484214480454,1.8604021210927757,1.4659175334627177,1.1340807863250675,1.1179116826431792,1.1213564145411266,1.13077694289306,1.3581740736071286,1.5678266790448236,1.5941660538295466,1.6402946771619173,1.9077455289508432,2.238692067893279,2.4258778388944253,2.491682637835808,2.4947866666314398,2.364218488621802,2.213421119572896,2.1365050035962776,2.125412880239668,2.1461442443336103,2.019129980474806,1.777046466565662,1.7817765904937808,1.8597894670346073,1.924644604688665,2.1879932599147884,2.372455550891268,2.292531150941508,2.125412880239668,2.100525228475465,2.1316008545081386,2.1192248860260996,2.1503004689216993,2.125412880239668,2.000701087842415,1.8791864928986841,1.8914945371877718,2.0732226241702802,2.125412880239668,2.085964506823131,2.156148438630145,2.240583011671152,2.230370230605564,2.391036293444729,2.612732458176297,2.650714070895634,2.5718298885470117,2.355464954053469,2.125412880239668,1.8775704612280493,1.7793628439355071,1.9288009331768026,2.063668981302474,2.125412880239668,2.1871567012518263,2.322024931202583,2.459154916783334,2.3007337183948295,2.125412880239668,1.9924984610176368,1.7924871715352102,1.7574629104285695,1.8107104682356623,1.8597894670346073,1.9736383460762785,2.054170650367698,2.0384414891774294
2.175651566852809,2.1977981516537577,2.2550106169522546,2.2378156784045324,2.1133491346506337,2.0257546549967715,2.0793674288962243,2.176702834966261,2.1911371046933406,2.24449193187921,2.231759730484461,2.152743014347023,2.183081129076485,2.2958375473461388,2.3329226362315914,2.2337059787739326,2.094333212309567,1.982672514675956,1.9487922673190323,1.9725279810994532,1.9854057538837615,1.9869606329543466,1.995772485135688,2.0276373387207784,2.127366272353242,2.0905129615162235,2.0032981140864687,2.128698655035764,2.302677332075925,2.2752009196876077,2.2895344508961095,2.364819906631854,2.3264318517651477,2.294624989250056,2.204802810917853,2.2519891144809625,2.3425842126963423,2.2134187298717776,2.0344637426085876,1.991339218489364,2.0330644687036874,2.0362790916796514,2.0496652548233296,2.0668678300246266,2.0789886761118144,2.0956111958952,2.230573971179492,2.4099887013149974,2.486061318662013,2.6195794120094384,2.7549283726423335,2.779777286386621,2.7669854686282562,2.857809963308143,3.0208939732361193,3.1252602659110975,3.0614152296869395,2.9086856611194234,2.7577228683502373,2.5417427202653573,2.3527779206815747,2.254446350631019,1.9883015224533498,1.5180828386775709,1.115822044865169,1.0657172854147101,1.0618818893339208,1.0855794124250386,1.327437351907179,1.5628098503539474,1.6012497810306474,1.6415394591159393,1.89342440637672,2.2250305918850324,2.4132343904055014,2.4959382947704345,2.5249576377237446,2.4194051330364426,2.285443742710113,2.2131936007306963,2.198423229189169,2.241987740328605,2.1970869558208976,2.0254061593908084,2.0416255358533686,2.0715316137716964,2.061623564127303,2.2106179185252035,2.2763330146174603,2.10996983380831,1.9156471870204734,1.8870714972748057,1.9240719521492184,1.9168251909289558,1.9434326575248675,1.9075384116253349,1.77032018521757,1.6271260584557703,1.6107044479699875,1.7687919342451621,1.8106899553974902,1.7679591011410867,1.8457171553912206,1.9487158710975625,1.972083867763024,2.156892416783705,2.4030708579629634,2.479603247868023,2.4335582195462058,2.243817694777933,2.025401498731484,1.7639676768729862,1.6148980320469903,1.7244807008776675,1.8548377094599005,1.9212090753664532,1.9736653304031937,2.096580113943324,2.2437359625468227,2.1024917150101223,1.9414692137773484,1.8381178167773702,1.7093600971150786,1.7513799781815835,1.865457689658926,1.9470275843645388,2.0777275224787015,2.162498644475437,2.1535604479796056
2.2381218792692716,2.2485102217313124,2.3217942730946284,2.359408940527939,2.3619674495396796,2.3392711073171433,2.368359840660073,2.3626322614222595,2.286022629252477,2.2583117589829977,2.2359460044509,2.2194017399577115,2.3554650727963815,2.505773829602317,2.561961847842772,2.4678755150362517,2.3189902631108428,2.1486433633354123,2.0189810100693695,1.9661279459040537,1.9602759240937118,1.96319517407429,1.9797190518936512,2.024067481478555,2.1088869058657544,2.0776973246717105,2.0109031672029936,2.1533619228170475,2.354391057993712,2.3893200130700323,2.4355164682912935,2.489979211381413,2.40965601335929,2.385229913441463,2.3062020076398597,2.3323683888436166,2.40618361436268,2.293286726937996,2.1212663243860153,2.093779723763019,2.1416646215673762,2.1425960168550815,2.1432480341888156,2.143035595696531,2.1447923340080206,2.1624719570058035,2.27439192422326,2.4050418715711683,2.4898899760825057,2.636661856490225,2.8113160570905236,2.923630050399539,2.997764991211095,3.058917769375199,3.17623327353935,3.2741238620977997,3.2160451598295934,3.0805874010029206,2.959363533238115,2.691066474924569,2.432906855298491,2.302792245529708,2.047171141577442,1.584740894504017,1.2230961139867842,1.1711006705085738,1.1302082830840539,1.142182437145443,1.4269153550942981,1.6545813494484882,1.6625903214254873,1.6916543413997076,1.9366334680283668,2.2424385477967386,2.4653303497593275,2.5865474788638356,2.6465145496729954,2.5845673220513516,2.4814304341231983,2.4104529861037247,2.377028043602754,2.3806124765375136,2.3229370400437617,2.230985971979463,2.3091379558425387,2.2928221749777156,2.1744426452584276,2.188335365667761,2.1646060491617627,2.021877379774953,1.8780560009981528,1.8807574467910781,1.9148152296453793,1.8567020622467567,1.820952192886225,1.7586798471695593,1.6208561358069817,1.4999253255507645,1.5034121518112702,1.6572667797910605,1.675561915953707,1.6151062477444413,1.7083442514967766,1.8459329112636291,1.863334150779335,2.0380749817558934,2.2565279138909644,2.2628784481346247,2.1935442758628225,2.0180720701796737,1.82958934455723,1.6312345038643545,1.5563303464642115,1.6341883525611258,1.6506493263224746,1.6591984301236995,1.7143016131135635,1.862898839261311,2.038044123441451,1.9555070602903186,1.8545026169602106,1.7834746141456472,1.6470968649169642,1.6905007540026529,1.8090153537851574,1.9200944801733624,2.1072072873653593,2.2512435722605986,2.242346121282052
2.4692108384612212,2.4640977092681307,2.5371396512538467,2.593878963152323,2.5389360237231715,2.4926282470212375,2.533911387685784,2.523340121766701,2.4184599097654793,2.4241796074424613,2.445891333432741,2.399242200542471,2.408962317263192,2.514577251036856,2.5740647785930038,2.5122416076294223,2.3928618469848546,2.2266394099237194,2.0661018899982873,1.9752107248836253,1.9581684155073376,1.9609778282936516,1.9746269105103835,2.027384193673728,2.180415762575446,2.1940498906066073,2.1310684071129558,2.2351727357604165,2.374876778253043,2.339554234949655,2.369665122128125,2.4967259758819487,2.551888827185454,2.5323800197119173,2.3552976304465854,2.2955724092649037,2.3055661096565268,2.1698560555367727,2.0636589104191887,2.1022085038865,2.161256556501247,2.1431845104412277,2.0943531648296196,2.0425422830895754,2.0258113547375944,2.0486483702045417,2.168180619013335,2.3106301089694803,2.415458890446631,2.672068618204458,2.941180193527793,3.0595285829182206,3.0587429204362224,3.096291448067149,3.183358679502815,3.2741543790263683,3.275023458404551,3.247563566123965,3.131650534501926,2.8451624181887305,2.5311026725140824,2.3170297730932776,2.044981633588404,1.6748535551078882,1.3322830126893723,1.244061956370826,1.2160757955010744,1.3021503361864188,1.633113135486465,1.9364036411208012,1.9503593917524913,1.9169533590603707,2.0732122304547014,2.3413456944309665,2.5062688984911663,2.6166123828493557,2.707711381457718,2.699720102174714,2.6391986207060745,2.587387852142869,2.539769391170354,2.576052802123456,2.63633923199637,2.5684292399554107,2.5507927410438826,2.4086242858764124,2.180027083625676,2.087771740558254,2.0181353898378807,1.8695908039076274,1.767509748273634,1.810229114153232,1.8225095358722487,1.68969511302559,1.5623788135807812,1.4637770143466078,1.3374385924737595,1.2781103585350224,1.3336396504671746,1.487298619812534,1.4812778197946277,1.4073792367508364,1.5126571187667504,1.6939419532989468,1.7859544114491204,1.986411090754288,2.2176091301544334,2.246729805340884,2.16509521430142,2.0108573472815485,1.8678875258818732,1.6557530451397324,1.4795469637273946,1.5436600027055574,1.6496366867628163,1.6892059515966484,1.6822851990432528,1.7315001584772598,1.8810297688185327,1.8489404020712208,1.8232474933890626,1.8349385643465321,1.7391837155019556,1.708882156891389,1.766268973892916,1.8927282315223188,2.080551136175233,2.174542404147975,2.1535567706600274
2.4808807138087707,2.4793397276589735,2.5576152932084604,2.631133364588447,2.636436601184799,2.6817347068998925,2.6779309558053424,2.591454945332099,2.608660051241723,2.56887897873733,2.5707763123681935,2.5946648334344182,2.501406138729542,2.4535226138901125,2.5382034690088866,2.566220265550119,2.4985098803454386,2.4049836578582084,2.3085869590417993,2.249061218532052,2.236830512986304,2.252244634386267,2.228470818973728,2.215907202829311,2.3689173386352835,2.4125398631090142,2.3803656693934294,2.453761079344578,2.462365576714586,2.419865528994778,2.435083056659873,2.4908134100289847,2.512388819155464,2.4704282204881336,2.2755300453559335,2.1264219337401706,2.072017027377455,2.062733201803788,2.0921272343074637,2.2185153315357042,2.2164303544170183,2.1164856535480783,2.0266139083989265,1.978775298066233,2.0405915819408773,2.1115034625359135,2.1507435265594204,2.166968947778381,2.2826134311711606,2.538648517445753,2.806258677694954,2.927869053640656,2.9510117504720994,3.055892971788079,3.1990078079699114,3.237166436686383,3.273987426491087,3.361267029626149,3.194147423066541,2.7943019194702785,2.4181850199225376,2.1440581688429816,1.993270245421711,1.8629933883055627,1.6112545838846097,1.477662157473823,1.4890041836393582,1.542905569609604,1.7524589653437233,2.046003431195206,2.092025104270378,2.109936924395586,2.302280033132835,2.4748419242395876,2.6018097726070253,2.7539805073415624,2.8681974745697953,2.9054338864546425,2.8918667962191424,2.929683207861161,2.915466475150181,2.8727987624376152,2.88578739657381,2.8615998808533614,2.7203762630423878,2.4145319535842265,2.1505154845062613,2.0282938460208997,1.8982119573460021,1.8010524540582928,1.7796009531612347,1.7876516039005979,1.7259373201879784,1.6015327453916544,1.415779763482523,1.2625982593892024,1.145479452859969,1.186969592107111,1.319330654513013,1.3965202567542379,1.428451057184479,1.4606956951330339,1.5039624658402615,1.632848338791104,1.6736236160179558,1.869913072172744,2.1021910338354663,2.205206291913836,2.2121241352658703,2.069983655186493,1.9811857791944072,1.842226054385857,1.583109782483467,1.5887420556909604,1.751525260135294,1.7678917442238475,1.7169873106276896,1.747911883615559,1.7757012874789369,1.7693605643684402,1.774568866006074,1.7774505783833692,1.6812596758775642,1.564363185766667,1.5481722333888388,1.67301336650377,1.8122694736224643,1.8410531712654856,1.8580196039205465
2.4366903013549663,2.467672613084145,2.5778744074617332,2.673388445679318,2.6497670367952524,2.7023136848742992,2.684871835282444,2.6095963094227757,2.723580599913537,2.706164161305004,2.7023136848742992,2.770483278608188,2.649188936924685,2.4755648607779426,2.422359397333408,2.4366903013549663,2.4198264032050374,2.4193631871025247,2.4274593163774587,2.434871219303584,2.4366903013549663,2.490484284360659,2.507659674856375,2.455262464732984,2.561897459498351,2.5866364469911898,2.521714798463146,2.5101846241524095,2.447863534470073,2.426519199051743,2.4366903013549663,2.4689783398381198,2.5039622580401644,2.4267720027129194,2.2402451955059015,2.0647279677052524,1.9290565124535637,1.863615690225389,1.9128978729908588,2.0534512612738602,2.0154281924351207,1.95469914835505,2.03140364126923,2.0693595127515194,2.1081580470246277,2.1632707813975336,2.2118894695846114,2.226446690176378,2.2884897507500175,2.447124656695686,2.65665970664979,2.7796085527076486,2.8525961401250677,2.9824884780041074,3.0951089467708472,3.0836143359624697,3.1067459897030303,3.1898982079349296,3.044338573923148,2.726712800465211,2.391036293444729,2.0497159803113565,1.8640246705025179,1.8426566755588287,1.6703267190463424,1.5485687753458603,1.6102835043444024,1.6643953918131689,1.7769429821172282,2.0049667340245736,2.0429243606755416,2.076284940807103,2.284110497286116,2.457696308529235,2.7471530867175633,3.0021492170344666,3.1273272237927787,3.190765031197771,3.1999844684270164,3.1735279537588976,3.1329140778361575,3.030388656537045,2.934604211021474,2.8947987962199737,2.759346796424568,2.4195558474784096,2.111064224152659,1.9096117222528464,1.7304675701082648,1.6643884156670468,1.6766545882365373,1.7185390430110876,1.7609485789456762,1.6890590962993444,1.505913055667479,1.3321884339593926,1.1465614382806548,1.0816139928548234,1.206072417562065,1.2265111007850955,1.2828886327142484,1.3769279730130608,1.3849513128824988,1.4845162358817274,1.5868431190307752,1.829279841155231,1.99519358375046,2.0267374529781774,2.1267556844681392,2.0281401778489787,1.9697741696820192,1.9590420961733879,1.8425011817146244,1.817921309724828,1.8742501867454946,1.801037908051485,1.6895694236524779,1.6338862705911714,1.534616958073154,1.4882309891631953,1.4841813808678628,1.4547029184425289,1.3306749961653461,1.1823355311953812,1.1377264312313333,1.2527133868770854,1.4357195483577692,1.5855294661873767,1.628565756901019
2.3382007883876317,2.4028000944362384,2.5513550777927865,2.6880344933912297,2.6831086217714955,2.6984282980272556,2.6521407076204837,2.5888361891350176,2.7136751255060636,2.8233095068752294,2.8159656733238196,2.792499520798133,2.6795632552550197,2.4926924572512896,2.234009255594446,2.1815127318674303,2.270494959942227,2.402226714596452,2.5079540682227313,2.573273238336826,2.5822509446815065,2.6372796758650963,2.693830631818274,2.6574146740888507,2.7017083928767196,2.7197769081904437,2.5922089331421296,2.4096537869296766,2.3575793942573733,2.4062378501880635,2.3914314995439825,2.420911683741551,2.4898008595265106,2.3439408207884167,2.144634745464622,2.0222721999597404,1.8439643021994068,1.634613274074287,1.647232825552026,1.7185488096156585,1.6445201140252568,1.6667450765700313,1.9386095133674983,2.088600773889122,2.1432842433557626,2.1702279843144177,2.218342441854787,2.244204388494631,2.245008025685042,2.3373119531573456,2.5040560649412114,2.641593130912488,2.7189289056792685,2.7568505829134113,2.7747477522040835,2.819142461839219,2.8819308048831003,2.954099600545873,2.890726923628507,2.6468810496730995,2.325093841781778,1.9471267050109302,1.693192091805133,1.7115182198679988,1.6786979459643159,1.5764524610819362,1.5848102997365006,1.6401252013397407,1.7420896514334452,1.9112832662351766,1.938312092056868,1.987052658711703,2.224813240404734,2.4734697014544906,2.827911210343244,3.1182139427275026,3.285137742224039,3.3457442436181846,3.3335738075220727,3.21308204918563,3.152997185407054,3.113090720386831,3.0546467649191045,2.9339565871755102,2.7268038169078093,2.413971338607557,2.1061096278801945,1.8344397550559322,1.6272530540009222,1.5185050884751958,1.5310411933710226,1.6405004586296574,1.7578267090274091,1.6871019756119274,1.5508634821341343,1.4491122646259431,1.261193293245924,1.0369781757354142,1.0606137150260933,1.1422875246231983,1.244597011935533,1.3230857210133484,1.3369281760634415,1.4216369357667042,1.5874740001260457,1.7928520388202642,1.897480397103611,1.9231738995003327,2.0381279188306696,1.9895782462508929,1.945583715074481,1.9998911275919018,2.0677037838408765,2.048365116407685,1.9608212360775048,1.8268922774092113,1.6724039185042454,1.4757469530345955,1.285800208934092,1.2418095814309358,1.2518902610061247,1.1853489888343367,0.9967686194304787,0.8480637825180806,0.8473206893702918,0.9420370423859654,1.1194383602719937,1.3741792526980097,1.4697260342737761
2.1866436613652804,2.2564028033895522,2.424909282641113,2.6272952967921217,2.7931311143508797,2.8252446601237935,2.747119423101808,2.678004279553946,2.7368317746297515,2.8555428048756197,2.7492511552423764,2.5515308469893374,2.4830402614766434,2.407411564508824,2.1822001420105863,2.174288665386361,2.3504956818991363,2.5012114003526844,2.64115918493796,2.711461223269894,2.6976861548227684,2.6807724737066825,2.698719099420502,2.7081163541615427,2.6548582579209463,2.6747193162450604,2.5710522412116217,2.3439315736840887,2.372279603580348,2.4668645675630994,2.3476774227658246,2.2812694098278343,2.2620941808818507,2.0253318708560393,1.805060027362523,1.789111221469455,1.6794836678177703,1.4726280516891461,1.4692877541829343,1.4770203520305825,1.361270354427705,1.3608146191286936,1.6026755865551081,1.8271455560420387,2.056800308648453,2.1164944804138166,2.114417492466727,2.1470494141358274,2.1754884140907347,2.2539840102574877,2.374450520882114,2.531793489094547,2.592443183223194,2.4829452968321974,2.434567712418677,2.6108393992902914,2.711487762310887,2.719715874333307,2.721955009438429,2.459635172493822,2.1077799306280154,1.7981292707187309,1.6593902296134673,1.7487017317852305,1.8408640731769823,1.6932548177487763,1.588456360242961,1.6644632237020591,1.7869798455576242,1.8852941385143795,1.9265118369911542,2.021383164350789,2.271040197711699,2.558561466422725,2.7807666523353864,3.0309730497819865,3.2730646753163555,3.306920892076318,3.252235149796114,3.231740954261388,3.2661793675224065,3.27786580750628,3.226632040441699,3.0367568983175643,2.770446824533984,2.5460863656983075,2.3385615590421973,2.103931083201645,1.8865116095984764,1.695921605454052,1.6923697674488332,1.7728519325453573,1.7205970951743148,1.5773907675782333,1.4750512383089809,1.5165905371219883,1.5241779717588386,1.352126615805317,1.240159945516002,1.3448272514747202,1.4872221493767437,1.5426214771909261,1.5596787778599446,1.5728689187190217,1.6485513765405742,1.6749050598462796,1.760858542132108,1.934221190913638,1.9877256341695317,2.0240018092263896,2.0309604778761026,2.0353187657944773,2.1122244333224556,2.110790193340476,2.0016729095258268,1.8896619629729319,1.7569903433216805,1.527511560290482,1.3093183114840932,1.2421106540861322,1.2256278910002996,1.1395395167656235,0.9582112520131005,0.8368865121439416,0.8778559043473592,0.9044673785165751,0.9400150880682046,1.1487625756537072,1.3487072948906913
2.237408264049565,2.293409492266883,2.457296026170463,2.675870172555123,2.801236861801744,2.8166798525723618,2.8045056760744993,2.819224988163558,2.800275934780574,2.779345477784522,2.6086176897076108,2.366659085921214,2.2557816592131243,2.2256423182641947,2.157791968561864,2.232308196576873,2.3720248258182477,2.427404902437706,2.5459717787875347,2.570402569050414,2.515254263753717,2.4618083755966573,2.4563123598815078,2.477426868392272,2.420500803577819,2.3920015842679416,2.3009273435568804,2.195336113837168,2.2481322853044277,2.2256318243592834,2.009948889784936,1.919440132509966,1.9113306001287589,1.688224274251481,1.4624494685824212,1.4661637468922382,1.4006352330230214,1.2209204469685098,1.205643874390066,1.237338792024193,1.1437024651711452,1.1165430518311923,1.2865918085617263,1.5001477903977416,1.7557811248700173,1.8488920440200163,1.9488516387753914,2.190671268825316,2.3122140800536815,2.4102558728686128,2.488292943277906,2.569623942085994,2.562847462171551,2.4592871370166454,2.3937362401083813,2.5185944722027442,2.5282201586221262,2.425719524906044,2.430511098291494,2.3201994073481855,2.067341146696152,1.808640660524076,1.7076393341954266,1.7823630617396946,1.7739039353805819,1.6078511745202884,1.5769830637874163,1.747318287794882,1.863518914751524,1.9591075086754315,2.0220196931558454,2.075530351861077,2.180114656523805,2.397875707102913,2.5981588733268715,2.8434796530011486,3.0803244448227067,3.121836314022876,3.093431762500163,3.1514251479855813,3.238973941303775,3.2321231876974266,3.1219639626540476,2.9945868371521995,2.9109605972127297,2.8047026705666984,2.6632008381112264,2.523045906514714,2.3487987566192126,2.118142679353971,2.039530198415548,2.019602688588904,1.8388724279876927,1.6649856331465616,1.5853965928680454,1.6922656596001078,1.8178697753007083,1.7563458364771756,1.618303638155197,1.577106912645381,1.6820558471073381,1.770649459314537,1.777813902010558,1.7263352573742243,1.7753153433268754,1.7619065373940284,1.7909020427076103,1.9094370514282382,1.9134803960349247,2.009480092765526,2.077609250826918,2.04304546360365,2.013045615891435,2.0183409560840913,1.9964397757765704,1.9109695177740478,1.7716151063664873,1.585104782160041,1.4067930623622045,1.230073328795177,1.1220105692472895,1.072050438664521,1.0282264668393644,0.9484618651643947,0.9579862341935,0.9393642581635975,0.9322316088824567,1.1122098854602895,1.341453468467122
2.1705111045254974,2.2527115463619385,2.420033253358992,2.5723973906126187,2.7541956694994076,2.8429846731694837,2.835732271660867,2.807563424819899,2.6989464920983566,2.569692397375176,2.4224748748160265,2.260805953864638,2.146067243265429,2.097745421636936,2.0292440119656048,2.059926624004515,2.16154023331973,2.32324280304401,2.4853416178680297,2.434155021425526,2.3607569100731127,2.325514117478479,2.209934040983701,2.180291768999556,2.227702366792642,2.1843948116056118,2.0373971526815073,1.94814519265904,1.931130951138746,1.8584819591369421,1.69389884962163,1.588538708452931,1.5329943955423198,1.4035202702018728,1.2717956104366828,1.241906713133539,1.1746672326349696,1.0963033223584207,1.1440303737246158,1.1713259258139996,1.0715226264174897,1.0972149116993561,1.2829668249222732,1.4050926044806273,1.6155468433220812,1.7452570295730114,1.9030233311121483,2.239079911931944,2.4078166856412895,2.5099303658905523,2.5582358139845964,2.5489680483898742,2.496183469199469,2.497423442065526,2.4725388460759667,2.476451335992838,2.45319277576431,2.416748319735835,2.371895336671929,2.2331250736020523,2.0115730330807957,1.8492907827209233,1.7517053634481587,1.6321590658685046,1.5439765713108633,1.5516358454099082,1.5495763683317283,1.5643994617265025,1.7158420352345252,1.883826995613429,1.9655355820410962,2.0254296408017987,2.090198949594257,2.2371061375510184,2.406460077549215,2.586335997736285,2.7152921664914564,2.801564829726671,2.9024620482065946,2.8625751163955138,2.9088934018452233,3.0426178703749525,3.03570163005224,2.944888178463236,2.9510305712237654,2.8748368657915058,2.741372206754803,2.768918425132935,2.7344027696071933,2.504973977342249,2.3481501383013548,2.2407612522045737,1.940640358560849,1.7482839942182888,1.7895585557073914,1.9343128752851202,2.067436701344446,2.0621117607700787,1.9099671197906112,1.7818091557375937,1.8726101096350345,1.9993354107603818,2.0363808469344185,1.9883894812659455,2.0427860697108176,2.002564431314513,1.9038506723565103,1.9102718141046453,1.919872312183667,1.9566165050095705,2.0274575767937875,2.0172240379827704,1.883949553142218,1.8449474341452547,1.7411432110476268,1.667083553242734,1.633929878925867,1.5343376153709851,1.3654558046151868,1.1607936075702883,1.0350749643303712,0.9664960637763435,0.935261215557542,0.8857943430342038,0.9535345623957048,1.0149588462297388,1.0262913135908003,1.137894214967004,1.3846201982703847
2.125412880239668,2.1894344945964703,2.2798399381159435,2.3622384950808226,2.5426584359225095,2.65665970664979,2.6178658924074623,2.5134695280898383,2.3748352479193198,2.238938511387193,2.125412880239668,2.0200729847375873,1.9252220514732121,1.8586462696424155,1.8353266161852944,1.8597894670346073,1.8970702590830832,2.0552587436269567,2.2589639989596932,2.1953926428850536,2.125412880239668,2.1706470837141394,2.126628316807746,2.0669162993973114,2.039529404322319,1.9329396728709938,1.7307562044433538,1.5680908820256212,1.4845848099138221,1.4307317523090524,1.328542670310214,1.211632554450082,1.1101109857350873,1.0283656335330698,0.9694237890323169,0.9347767444736529,0.8736766287913388,0.8860136611939938,1.029030237615552,1.1341997073521544,1.0629192274194248,1.105806317663237,1.2806961635738245,1.3779450060604899,1.6474100196635295,1.841631627364791,1.963101916359214,2.1764890197983324,2.2952079872657727,2.3596764979960203,2.391036293444729,2.425513268466653,2.5208983221952974,2.6063657600536434,2.619340768440604,2.5741711722427993,2.501110646991243,2.431870793699299,2.384958793686,2.3040161732596838,2.125412880239668,1.963984799601,1.7609525865189806,1.4761282365273327,1.2933698321340348,1.3560388385506348,1.3767884500906171,1.360063807691578,1.5123288539845416,1.5790300134883044,1.5941660538295466,1.681392282025342,1.793200668012004,1.9224815541048668,2.060677665506024,2.1985630712331905,2.2766438093486356,2.389273287733878,2.5681414071349824,2.57871374174028,2.65665970664979,2.831052375984828,2.8116224731767923,2.7358815344707264,2.7987785272797443,2.757306021355141,2.6170028986035567,2.692560973224037,2.7585228987246744,2.5644980777155144,2.391036293444729,2.294142254781265,2.0224621292486327,1.8320647186872046,1.8912681983532673,2.024766513584293,2.1312951429940745,2.1023594149964167,1.9388982219169077,1.948061849977176,2.125412880239668,2.2773414239608534,2.3667008537407623,2.3657620722728145,2.361201721024154,2.2535554225568966,2.0711782571277437,1.9964275600994246,1.970917693617221,1.8546749129265643,1.8597894670346073,1.9384027671135922,1.9103302653034306,1.830406384853914,1.6120377527654408,1.5210159073646166,1.486794318662221,1.2993081058276024,1.1291591300787345,1.0954503920163678,1.0629192274194248,0.9588095975502862,0.8718236456383754,0.8244275307699251,0.8343726059387903,0.9072805168617756,0.9832326398381107,1.1414471810298934,1.4133217851892619
2.0228977747310983,2.0468665660063206,2.0676081846639907,2.137013184300192,2.26011494432694,2.3044586687239272,2.2779468792299378,2.237763758065946,2.089447711424799,1.948203911029379,1.8775825433194184,1.811463802959673,1.7235671225929439,1.6472285211214401,1.6478944016902342,1.6395841492579415,1.6363455253707444,1.7524276172147657,1.9086071275255245,1.8665741402100282,1.8394773637565343,1.9378885657729312,2.0266543997321635,2.01335735314448,1.9047145122036693,1.7411796651218312,1.5050022381554762,1.2546711606505223,1.1323734413545528,1.113468797820925,1.0403929844193565,0.9295425568810464,0.8355605100376204,0.7567471578364341,0.644459941054237,0.5883800382358116,0.582188189052135,0.6574450722745065,0.8281792130972483,1.0723672447556525,1.093894384888112,1.1245922776556028,1.301203005228755,1.45132539503318,1.7605272197198967,1.9734919063791692,2.10257135068668,2.237427277758464,2.2563568350394663,2.2951484673807725,2.336564377464602,2.408032322770785,2.6006186030780953,2.71351636623176,2.6893261787957754,2.6216988245728126,2.5121410620680784,2.379631274163997,2.3731374023818224,2.4711036301756732,2.38142262974526,2.155922548792279,1.7761539057764895,1.371923315470738,1.083803612165342,1.095464166194243,1.1319383079508978,1.1473625967127628,1.2535112205076373,1.2845078704435264,1.2976549669967432,1.3368163202396612,1.3928272334257974,1.559341785473651,1.759535063312682,1.9096981374075768,2.0186264437319936,2.13495515532894,2.274368220169309,2.3955807331430856,2.500830799631695,2.5947778766873255,2.574670842419516,2.560571635506399,2.671545555673936,2.72912939685339,2.677625370919463,2.729796791394321,2.817775968399661,2.687046849214698,2.5252109757280286,2.424669273528782,2.2279828152881858,2.076219888244514,2.0990632768662296,2.1619441929980807,2.2343647273465312,2.198255838789397,2.0099033444564767,2.041156694305366,2.270206904478837,2.47689059571271,2.6385061120391033,2.700867277454482,2.6105834786276563,2.4516852157444435,2.250881896191324,2.1019565481239346,2.018275654903529,1.8935978155578805,1.8623253109928835,1.905821136778744,1.904889272085462,1.8237779773516298,1.624583060237003,1.4851823242506186,1.3793393447130802,1.1803607771854254,1.0468742100813266,1.0937172204623369,1.08929606559311,0.9585660558363017,0.8257475957306104,0.7874109713879749,0.726923687878198,0.7685168366021229,0.9132516229707096,1.1968439558714525,1.491056892371513
1.7618194097818214,1.791070509215029,1.843055800174202,1.9550108039723424,2.1169873423543115,2.092637257381883,2.063038987068333,2.10468279077668,1.9565672563865208,1.823821170086131,1.8445745220278642,1.8306269201285594,1.7088307115244539,1.6109191351561816,1.542298733954159,1.4168573554154382,1.4299297626765555,1.6121151137730765,1.6414357668674084,1.6193969635240475,1.685523704187537,1.7423979970920453,1.7872690439215488,1.8685733552600037,1.8646216504962074,1.7323078774552954,1.5150566755469543,1.2607697966477154,1.1075783181497265,1.056082485476777,0.9763219210608397,0.8698935983350581,0.7807042529347533,0.7070139449598695,0.6012840680466948,0.5528199794212595,0.6239082739497553,0.7319739426990044,0.8176672592630678,1.056952633541174,1.1373107716653643,1.1658835818953988,1.3957365535302995,1.631296279864696,1.9331263367297864,2.1288786375184383,2.338195652756657,2.514448949319664,2.4430661426818996,2.433397352585201,2.4687425164134615,2.4602624616159825,2.52903883163386,2.627881233694928,2.6448624795283506,2.623812626533561,2.592172775925207,2.560713562972825,2.5602282606885467,2.58672351523194,2.483226747221067,2.293182990160873,1.8985201248902333,1.3903769140504065,1.03637377430968,1.0188112225470467,1.0152823019239825,0.9243808024651978,0.9580458431356844,1.0754116942948275,1.1756627732151967,1.2105614933773663,1.311503656049754,1.5636874792218456,1.7499300678458412,1.8411218937262213,1.990833952552885,2.100661576880351,2.142470073297922,2.2920403122689246,2.347635699474868,2.3685223700218554,2.5174654942743504,2.5981575968405597,2.63431074681841,2.774295994792648,2.902345561409218,2.9445878776369723,2.997406150128861,2.942973745852941,2.8038444561650295,2.6478587788164187,2.489379411243547,2.4047683175859946,2.444716520740038,2.3900528646415995,2.3661698205922237,2.333583826455333,2.129327022816688,2.047158057592747,2.2671240267645336,2.509268255409237,2.6774251703686205,2.809692247759106,2.775839593286525,2.6712188939210484,2.490357259129779,2.289180211101744,2.189663712946608,2.110057011515183,2.0220192181841945,1.902916447647838,1.7807924195474465,1.7237534895944546,1.6166811943672756,1.4152511200351028,1.2849196114933759,1.2538030905870978,1.161465929942097,1.0864118002431915,1.0058678888320538,0.8968447959775601,0.8146327841285611,0.8310565913582292,0.8590837185328684,0.9184630119240742,1.0134413118052037,1.2429175121780505,1.542558424704273
1.6528056679317042,1.7101825402142912,1.7833902769918895,1.8887026686668118,2.0427351215798293,2.020849422379554,1.9660002379014256,1.9677194720060762,1.863359472705472,1.7565251976468361,1.7916608099198779,1.7712583432852262,1.6137951478736663,1.530325945436266,1.5733493525438784,1.4868830196180212,1.4358138896019237,1.507130526751576,1.4955429402425402,1.4980740047985792,1.6031875466232914,1.6452424568490482,1.6200209575303801,1.6965179323617214,1.7209104577209773,1.6201622022250581,1.4978059426731185,1.3987156944674797,1.2389451461474412,1.0407644122503381,0.8896129963642998,0.7756036511189546,0.6707302668352143,0.6067107379008171,0.6268793403688707,0.6456131722225535,0.7293912843473894,0.8398568661055806,0.8937177013711333,1.0505388538536276,1.1022255063873148,1.1017546907383882,1.2754370993410036,1.5372063253993375,1.934346078772089,2.200943888897481,2.457251705378291,2.6929702206727195,2.6689759590427196,2.6028995356884943,2.573892096712184,2.4947407724956743,2.4561393217719494,2.5256889753231744,2.7089041540159697,2.8066766527477216,2.8278065978371396,2.8146892463835584,2.7497347951258764,2.58475698416869,2.430573557063584,2.356708726692733,2.131574497292231,1.623611327610776,1.1724067831770146,1.0882863946062695,1.0742735434764261,0.9748647080359653,0.9634099354748044,0.9817493033724383,1.0535572986949173,1.1923192571823358,1.4769875789866724,1.7337462103570478,1.7436924135835836,1.723410352262428,1.8421044616432338,1.9404011064345865,2.005687466397611,2.2572040657217087,2.36092979975403,2.3576454301597085,2.4781105010265176,2.5875811656047736,2.636890911568858,2.795049940448945,2.9537963311467914,2.999439859994981,3.0371474437574935,3.0041575159172647,2.9051927195989125,2.7888693718419764,2.678931364844991,2.605979222187018,2.5857310322817155,2.448091105262297,2.359013021971209,2.3313411142199656,2.185493628834175,2.1815637282377267,2.4022749539047434,2.5759771332023265,2.6496179550683348,2.780866277639157,2.8619454227293706,2.8132434920497613,2.6459591890702137,2.487485461785696,2.4124886255421765,2.219170725621019,2.047437749102222,1.8980281433171147,1.7397386308188145,1.6734856961248339,1.6435227626156106,1.5240789995410884,1.4419898866067524,1.4142027388587162,1.2947667237592486,1.1585615376684728,1.069072010184817,1.056591892572337,1.1547191951272895,1.221631360786952,1.252231528137276,1.2650840235240397,1.2159170362267706,1.23361026456485,1.5103571279188603
1.5100671577260032,1.5803317326689748,1.6640980595597232,1.7561838414585003,1.8941015972079505,1.9931023132573997,1.9471442344334202,1.8291529346672635,1.8160343067273708,1.6699152451680466,1.635050426107458,1.6725173476716193,1.5674043698757423,1.47340041496492,1.5794048848637547,1.6066097173678222,1.5504510286268085,1.5533297724312858,1.5961661594513674,1.660495548016502,1.7191661243331509,1.7432090408716372,1.6883122924355332,1.6618364820440974,1.6934823291695438,1.5910855064449052,1.4664783562394843,1.4646412846368253,1.3215898571703844,1.1136942906121765,0.9545914930618071,0.7981282317182447,0.6131620403487824,0.5377777459810645,0.5569141163088611,0.5788948543679031,0.6683630081272696,0.8262970191877563,0.9064575097337276,1.034625878634472,1.0540794112821381,1.0230461885291318,1.1306514910057734,1.3981711988412118,1.852193096993575,2.2266970002363875,2.503547192188759,2.7243472635295007,2.852815814513596,2.8388267713377524,2.767852173148184,2.6139441999148554,2.4970938414255492,2.5847892525552214,2.844257834679645,2.9123586168956144,2.922134720899682,2.939935411573771,2.7953498850464706,2.5012804196707017,2.329377640786718,2.286733053256404,2.2247867013637417,1.9302856945574276,1.516413194581844,1.3600269973886356,1.3251674623876628,1.1286389173781173,1.0049330258802256,1.0399192001976119,1.1079179228801,1.3035548273580464,1.6750249308166683,1.7885756612473687,1.675355362657034,1.6439648424796596,1.7068003264598899,1.7976933358004152,1.9418987811069695,2.2585058591166995,2.4282743677303547,2.4465463787107495,2.5391836620676447,2.7274778610518524,2.828846548266723,2.8607692741788995,2.9519511850260676,3.0838167332571973,3.111638494564291,3.0782574275695693,3.0066579448018227,2.899456368228422,2.7852128025877407,2.7336727381798034,2.6502065636866776,2.503320660397021,2.3915801359849773,2.4210697008726507,2.466527070519427,2.512067411776465,2.6542631778138603,2.777548778772187,2.760894966520584,2.7823079353424656,2.693424471685322,2.638637382329113,2.5715137355419,2.506943684778414,2.4859432585210435,2.2865930256765816,2.159383264599493,2.0342901924202184,1.751628655526543,1.6437508974366701,1.7196409475553818,1.710658996151572,1.7022353739233618,1.7560907767006575,1.6531559001527658,1.5164846184438439,1.4488854656626518,1.4717858082092379,1.6007051666614667,1.6673303010153617,1.6581591030944076,1.6063139881436983,1.466126164760363,1.3128263927259753,1.4679515401861194
1.5485120756050375,1.6052746908001345,1.6732233336591837,1.7302324591410831,1.7222170453610692,1.8141354591243701,1.8166684235670127,1.7048006364382635,1.710963007693858,1.5833450121935613,1.5485120756050375,1.6458450177596353,1.627340508156139,1.553442103226717,1.5372921171537763,1.5485120756050375,1.5285371428276269,1.565129611896805,1.6729512045889623,1.783152880223638,1.8141354591243701,1.86406801166566,1.8559134015062122,1.7418505032072313,1.745547385680335,1.6320807252318388,1.434075137130995,1.3441089755956894,1.1964145221276081,1.0429008347359592,0.9072805168617756,0.7894012213480402,0.6877026663216393,0.6094964466331798,0.5646998516099505,0.5601353740450732,0.596245806260073,0.666239884847873,0.7699650251656308,0.9288789027418659,0.952934554457741,0.9895481003939266,1.2221276467906566,1.4868137331284503,1.8016161266649648,2.14249058057002,2.4919612977662293,2.839996863999675,3.0771905224987988,3.140641629110015,3.077921800726772,2.8997359484164162,2.7587399013976666,2.843669997890235,2.9920090472600056,2.9488125723571073,2.889366426706041,2.831619729621794,2.6425227691761566,2.4716132747570585,2.391036293444729,2.277565284037055,2.1466078129541453,2.004290879051111,1.685262351036645,1.5183367703964181,1.4829483544621997,1.2480155610212258,1.0427594119269121,1.1190738195299497,1.2004001279929857,1.342053357662173,1.597136467162642,1.612989774068157,1.6167209138715797,1.681380496791255,1.723339700229361,1.8147400386644734,1.9825527030770236,2.168104883299317,2.290389919367922,2.3375598141447806,2.446558846716585,2.6783317131357656,2.8612806405325193,2.850213029238275,2.865170064638595,2.9758526490697785,2.9945868371521995,2.9587725497615183,2.894786921928702,2.852688640854075,2.87463149992396,2.877147484130084,2.800203026632165,2.6737373717283397,2.5018497622514557,2.4449744897179175,2.5789033741718907,2.617497136292017,2.7023136848742992,2.80756259361951,2.7398583533605625,2.6621416513297826,2.5186935631634073,2.4994220337152098,2.438377697516145,2.3118892885016695,2.3326163537310998,2.21783486043151,2.1710669029927696,2.1375360566565185,1.9257498340345152,1.821044010843484,1.8774702125239873,1.8634919897960653,1.8533632193412255,1.9249895973787028,1.8676636658056718,1.7771647938781854,1.7498047940729238,1.7732502259603415,1.8437565911593348,1.876878086146855,1.8207503596203325,1.7155926454320893,1.5991243422644528,1.5052737438254056,1.5433964528107798
1.6308180724694528,1.6668554777931308,1.7099947482978277,1.743061502802585,1.707705058397616,1.755597162412489,1.7404089939325638,1.6094612096738308,1.5712319882957486,1.5442034890170673,1.5304506848660762,1.5902442129082985,1.6843567878985297,1.7180928368308217,1.5705333643687727,1.5148786205493339,1.5633482900916669,1.6661331349693396,1.8021094737815797,1.9299434626401104,1.964763782794158,2.014246633660689,2.0190184215083073,1.889536585299966,1.828893184545693,1.7467805011431825,1.5280020872629199,1.2892835322786727,1.1578300813261304,1.0769520273586046,0.924778116251152,0.821229902873344,0.7902520143176642,0.6854068908471508,0.6560914030695221,0.7172027993285445,0.7308393541679846,0.71059119394841,0.8483766700930924,0.9878993550508381,0.9861133429006477,1.0878859935045846,1.4381794859090902,1.6970112201068799,1.9229656541171538,2.177579421122957,2.509371828914855,2.9168969116482373,3.187546979520202,3.273868089863805,3.219730108639969,3.091659880756586,2.975780453378846,2.9717190895351546,3.0116260888984847,2.9955368991968556,2.9292011710069823,2.7828123552356914,2.5863700472665068,2.4315701663300255,2.3619495490455873,2.230768338484747,2.067694080318478,2.001929505538778,1.8331503851381845,1.6620622716926305,1.5436014624495873,1.2959958316487918,1.0815833571833422,1.105820091841112,1.1800487208108028,1.325557651598854,1.5534729170125672,1.5679025557660504,1.5889169640013938,1.684798600591025,1.7662654412912626,1.8404055771052503,1.9645455926920388,2.031998595211971,2.1130031057431466,2.212068355782621,2.382403149347028,2.573518175280035,2.703349004330287,2.702200522878479,2.696538742057175,2.725258971613349,2.7202497424688867,2.660367513470864,2.6194641126411895,2.669290627761422,2.7897108434929523,2.8036868249483966,2.7716504026972926,2.714257381378576,2.5428125345374895,2.3594325406818415,2.4413018011132803,2.567482324597942,2.683247372865006,2.742103841211515,2.6416627142593407,2.521294656352222,2.445225512235403,2.4275436238454886,2.3483625248436146,2.2202935957108396,2.2294761632656868,2.1458941810362164,2.12646662073363,2.179950531554133,2.17142624131095,2.089085352583776,2.013339289378883,1.9424683908592775,1.913035021055048,1.9300140701445851,1.906368244749092,1.9243671321873712,1.9702034549972227,1.9944829964750275,2.010169484431038,2.026480330043551,1.9879270369923656,1.8351053387674443,1.6686119229580545,1.6072009383302448,1.6135988658389435
1.6025685991907492,1.621082281684253,1.6432444589139281,1.6695118161220874,1.730196687838627,1.7646839341225007,1.7266795524496499,1.628597817487453,1.5884549353280084,1.6357477735481223,1.5648966976735088,1.4854383339704385,1.663249878934179,1.8390806436851435,1.7312013419374053,1.6968963660245535,1.7850118005222373,1.8341003878113844,1.9432793604245486,2.0582714294369797,2.090291561644745,2.094228174926478,2.085933459262171,2.037603802456797,1.9361807161450375,1.9332638113369855,1.8045501452953123,1.5339299115801681,1.4587654697153474,1.4084670999457019,1.170627836230131,1.0075266085798107,0.9340537188781134,0.7605325631509691,0.7012970674270647,0.854967614206414,0.941523241802635,0.9813181478563594,1.199458259209307,1.3511667574703616,1.3228542910764611,1.3870291357406934,1.6513527296516874,1.8938689056276155,2.1988515274539107,2.409282418470151,2.6223924019259983,2.959640679196399,3.2051624906219076,3.2786417924408915,3.2236289134361495,3.1587559791880486,3.035380252358969,2.8794430814902032,2.859439234813546,2.991927589621881,2.9833336306853773,2.792646583895534,2.647065576159463,2.433093014499905,2.3105799549317214,2.2307869217505876,2.1443551133266032,2.0946895876210037,1.997001889882513,1.7379510750107587,1.4799572204908351,1.2729803084768696,1.1276553698320746,1.1137685049326251,1.1965197283482762,1.370509324866093,1.6013767765757994,1.6671887297776737,1.5817252994926323,1.6538725730024748,1.812318395702504,1.8497507927647925,1.9128937466746418,2.0584705464587434,2.2127417691049405,2.3449372816262173,2.509161861759442,2.6118434893602345,2.6433383548721596,2.671499305309432,2.70064831552343,2.7036385589229495,2.668420004725374,2.5612533385683127,2.5623867990416618,2.648642957012008,2.653500788942755,2.583331594244424,2.520212314702798,2.5517382314863992,2.5341796872970703,2.381442816040422,2.328156904272521,2.471807152247799,2.590500311685303,2.5951151362451728,2.5403321435194526,2.4611983932540253,2.41926053385448,2.3107933507887393,2.2905648276783555,2.3675051440171933,2.3353456447370573,2.333727817079868,2.3669481358564974,2.3626066129531123,2.3183041368754305,2.2103092685878893,2.099909182822852,2.0579090260673643,2.060818895357838,2.052226316807694,2.013485165047157,2.0412872372950353,2.115445615916668,2.1739189593276134,2.224738981555693,2.273992769922159,2.277158114589345,2.058638486044487,1.7422950469867189,1.6084800963574988,1.6712843509516844
1.7247934400240383,1.7424066356389456,1.7544467810740778,1.7515942200818548,1.702773635546712,1.680083527327093,1.706877568724613,1.7707435630728658,1.808523075354757,1.8607696600933659,1.7870814004337263,1.6754619641069266,1.7750066117538088,1.938204243806392,1.9368681040238975,1.9411513686857307,1.941561788720676,1.828337289599804,1.8762318278443877,1.972271080807788,2.0004635426455226,1.9971715141333306,2.0226802674007276,2.057216955264884,2.0177456607554762,2.0467562761047016,2.0146148034830027,1.8995287420337235,1.8288502292970172,1.6477196418084414,1.3449224239192636,1.2037526560192073,1.1649668866092162,0.9889294498186663,0.8878585698288923,1.03612868893783,1.1535648952727586,1.2311504457564415,1.4718961203751528,1.67722396050302,1.6804921513754838,1.7084254419633476,1.8778314878359315,2.084820155398256,2.374381753892786,2.5559097590673647,2.7741221551684294,3.1567697664870153,3.3603422598219015,3.3989576925235987,3.3323804412492573,3.2249039748329147,3.0162672150135212,2.8409997072690345,2.8200624225555013,2.9542276054057828,2.9119064438839843,2.671111312842126,2.562070794465191,2.469622816996896,2.407203200382732,2.346445969703755,2.250528918040406,2.1306152526169377,1.885135779997406,1.565878523447317,1.368690183443254,1.3041838679381696,1.2035169513374622,1.2040666122804335,1.2889670824162793,1.4060656432788943,1.5358131741758745,1.6283987449942812,1.5958553498773282,1.6854452151222306,1.8486994133298598,1.9021735919858747,1.9802760006828906,2.2019495968396097,2.398958553409716,2.4704497129553356,2.4849534176006265,2.5593178587767382,2.6973351507727745,2.7752223676262173,2.7836463460831657,2.7651348603335473,2.710545240441188,2.5915156823319543,2.5863905897904074,2.656157661614819,2.6257276528584197,2.526670148010963,2.393608650848666,2.4045627736040798,2.434757760450482,2.3445639984372244,2.2561628981772697,2.245966511055069,2.27504548521486,2.279700237079131,2.2812626711675374,2.273581251515271,2.3427062655677524,2.2916648323360462,2.3209742939108544,2.476142188819577,2.4945850411656445,2.597928927676393,2.6927256102725208,2.6256370520160157,2.417291152961325,2.267339782636942,2.2402963662798507,2.234148837888346,2.218674068545712,2.187197990389008,2.0997021656866766,1.9743269213842658,1.992337386256535,2.148725680004296,2.376504476414852,2.475330966925616,2.4510060656551533,2.213757228808776,1.8741218850283028,1.7068836542988897,1.7765993401278226
1.8188751121712345,1.9269003786444314,1.931892746295288,1.858897737445824,1.8415168029681928,1.8672823823129345,1.8617710190763161,1.872657666171578,1.925025531952664,2.0000520390814986,2.0642856837518226,2.045189062614058,2.058308566282932,2.1941587184861135,2.201112533519269,2.065849557598046,1.9748242909170488,1.9006500165156548,1.8817752219817117,2.035128702919808,2.0652291110362304,1.9833028762709832,1.9944235062757558,2.0742543813388865,2.107955660862048,2.116554943748365,2.1289093643343815,2.1419030480593237,2.016393869172799,1.761006584858539,1.577879157178242,1.5063276465472337,1.3574598349871303,1.182815668162956,1.172403517746915,1.3149344950269133,1.440951954806685,1.5759985069266156,1.7620519974621078,1.862233789892906,1.906381796284006,1.977711153768183,2.0956462881366242,2.257288313818282,2.5041842479154903,2.7644472794974537,2.990199345898728,3.2476817153221194,3.45626812814652,3.46960758821834,3.361512114997999,3.145771560425255,2.853776979020591,2.7929072245889497,2.835864254408353,2.93308697345422,2.882195542207005,2.6423299306859027,2.5352447221669654,2.3781326495483124,2.2843022819330194,2.3077168258202665,2.2388205106176797,1.9771079843001682,1.720532617772709,1.5300381126158378,1.3832870122178442,1.2907678186876468,1.1930343863741795,1.2000109480965526,1.2849707896887572,1.401982786968001,1.5379056024123334,1.6416468620804927,1.5792870918943387,1.586941022562311,1.6798421229855376,1.8470587128191078,2.057699385454961,2.2434500815630223,2.423497755951907,2.5332935386251845,2.4299949228499096,2.424636352056231,2.6234440485324844,2.753101869158906,2.741832573027411,2.704787990318059,2.6424534233151293,2.5495229933924617,2.4905938840690975,2.4750425403906244,2.4736052761750864,2.447602389119278,2.3567288239307103,2.3045091789904246,2.2396472804117744,2.191268063283204,2.2340368707430853,2.215738996072014,2.111315634439969,2.121176204545176,2.2137001876820794,2.1806061891002853,2.2432635067614144,2.2317131832626758,2.278316184531355,2.504595692108058,2.6218445221267177,2.7552327107276295,2.844114155755257,2.758909406905571,2.478554183919888,2.308575990165237,2.2606417917878057,2.2326274517405795,2.2322451811973805,2.25128317302199,2.144444407996967,1.9370342847302462,1.9236960269304175,2.1444066329078586,2.4334957014026597,2.491404245076941,2.45569546076421,2.376610632578822,2.0996162904411273,1.7900055634023182,1.8394861804178035
2.125412880239668,2.248526140703049,2.1877684721595814,2.0753651730480542,2.0748211895005975,2.125412880239668,2.125412880239668,2.125412880239668,2.1131049481997404,2.0528913216475067,2.125412880239668,2.171958599185109,2.1888565283116797,2.332811567079608,2.348621562507709,2.125412880239668,2.003387609135498,2.018109518725772,1.9864896985625071,2.1227268522398965,2.125412880239668,2.058738801541437,2.1459658052768815,2.1986354747242203,2.22931626851228,2.2260592468950433,2.1729191662668246,2.0673537705520606,1.9085622872331094,1.6827009179806782,1.5941660538295466,1.5760122811044908,1.4074050633343527,1.2397592475570354,1.2512016708552733,1.3835350067910557,1.5226644152218796,1.6938574083450917,1.8655014167365345,2.0111012452242716,2.125412880239668,2.2338770353611346,2.3524632816486006,2.4714381289608,2.5517364503427085,2.7666443796114737,2.948071794696116,3.082521248079445,3.305410007254895,3.3188040890665653,3.187906533059912,2.9928144804369716,2.8140448879676945,2.8105911316083807,2.7548849721077353,2.7666443796114737,2.721667592218195,2.489866672785885,2.3586512568447495,2.208988854819898,2.125412880239668,2.167635670679712,2.09345347389961,1.8182150203194356,1.6005918859227337,1.4841813808678628,1.324683881875619,1.130564749308033,0.995463516076796,0.9826132768053739,1.0629192274194248,1.2074196746497625,1.3867330502878312,1.4779743919628148,1.474010872279203,1.4841813808678628,1.4758806575543157,1.5719882025353928,1.834919060823118,1.970403269633599,2.125412880239668,2.352315164707849,2.382077467223171,2.3375633022178417,2.376738963981742,2.4366903013549663,2.4163659675568834,2.3694265824593383,2.300851704321479,2.217057205674688,2.125412880239668,2.066570045063826,2.1003888967688007,2.147732471609089,2.136921768027942,2.079758857486567,1.9628932256901124,1.9348909899985516,2.0924674104881045,2.225461391172373,2.125412880239668,2.09608422869695,2.1244099775988525,2.0098819187821633,2.0552709667255344,2.0704205363373944,2.093971998224437,2.293887224690475,2.456163248468862,2.5790612725600774,2.65665970664979,2.673481421379976,2.5799223367916513,2.4506718934130367,2.3556171082532527,2.290389919367922,2.236252012358406,2.173047375216116,2.09200785315159,2.055211944076482,2.125412880239668,2.3059611970128677,2.4768346084293635,2.47486683056553,2.39248133532105,2.391036293444729,2.224997180597966,1.9627367967454705,1.9784659282500106
2.5036495485795216,2.6109649105490345,2.5437200569336644,2.457620698979562,2.4049112840529068,2.4091984375451316,2.407154189245508,2.3863816306376426,2.3164150707198647,2.2067891720475266,2.2336230739565592,2.275915811393626,2.323706360532397,2.447799710154487,2.4250055534575994,2.207901666975349,2.0821683033249707,2.0635857091242142,2.0223860521487405,2.144099350369399,2.1396809256594853,2.1243484133412442,2.2866351794105966,2.2887724330966064,2.2700672331277527,2.2339474202226484,2.147055642572671,1.9932660448911736,1.8307881433183022,1.6757280372885994,1.6058368197489412,1.575442196380532,1.4680127521576256,1.3263230090427776,1.2361706586203303,1.3179193949953603,1.4776435148365261,1.655509176882738,1.8374474833493493,2.133305475813093,2.329434043670259,2.427149902032644,2.4788842298457876,2.5322515992518126,2.512862158091286,2.666147265375953,2.8070498023509374,2.903659748595724,3.122956534661457,3.2260241954714957,3.1476091069995653,2.9638026182871626,2.8100432518091,2.801871186441483,2.7233303492249843,2.6847573077431273,2.634035560118186,2.393698450176409,2.178988591507489,2.082299640407869,2.027638058599687,2.029741255334043,2.0086819029062357,1.829086527693326,1.5947813202317944,1.4682733928510414,1.323209866728595,1.0904020370821648,0.922573535333631,0.8830414073457512,0.947403390840427,1.0744883494055328,1.2245045830459877,1.3029294678082175,1.400428560983436,1.437741146446792,1.3981292825930223,1.424846734811839,1.6141117164789722,1.7130766315402373,1.8825949339939319,2.152442709810044,2.2908953337330416,2.255218684221065,2.124560939441215,2.0825108283888536,2.0397387183917126,1.985280628539485,1.9455967471091518,1.9157021056176056,1.8302761535643906,1.7375495161656749,1.7696444489870204,1.903300016941645,1.960574503147741,1.890281904877368,1.8085107854632907,1.8757992770990846,2.0536163732939947,2.235587771926094,2.196927921953608,2.099420570579882,1.9345383977620998,1.753406800958766,1.7714888826502682,1.8132486276807362,1.8683051447059023,2.0951868551090964,2.31549132507324,2.4194781005563075,2.51044274155893,2.5873391675486546,2.565464021624747,2.5016105249680574,2.436534540339209,2.3240748346334246,2.2247393823130235,2.168097257777891,2.1293703213065958,2.2102222671400273,2.3329780594861025,2.467095700642705,2.5659283657849303,2.56715590033088,2.4488759959153628,2.3779353285131033,2.277084538512052,2.152709857244005,2.0913180941251914
2.6607734954894466,2.787793739167121,2.7896960600003187,2.773063562101549,2.7267702720349662,2.6862051994493537,2.6195294806146405,2.509089666068509,2.4533272817986913,2.4722686762638055,2.497302205551641,2.5211907266178657,2.5927355282743054,2.6445938236883264,2.5536352385742527,2.4035986702099947,2.3232303350381747,2.234013678767945,2.1263824240652616,2.232108656533483,2.233056054284035,2.174593723350565,2.2407470772693676,2.216667476592284,2.2212625675643465,2.145124014504328,2.0956404140731606,2.083131141364892,1.9312289437274666,1.8676869394165645,1.8196438537881705,1.709114061799927,1.5766997431976713,1.4601372472145213,1.3885834804681711,1.4827425729944597,1.6668812153194625,1.8243085206856537,1.9534085019509906,2.147168307332544,2.3195518280308143,2.4797343994151197,2.5563811090593984,2.5400564224761215,2.542751738166178,2.7078627786714335,2.8327764637060358,2.924239439027607,3.132712096141624,3.302611711773784,3.2884861736197717,3.0895717272649845,2.883881275967405,2.8754710123168756,2.870882964283824,2.787298996821282,2.728575461165561,2.5194785428736575,2.193592010513735,2.0555969531281053,1.9592728878671193,1.8854028773367009,1.9521090834142543,1.870583761829503,1.6493230273588717,1.5378650517076404,1.4232961898575682,1.1701587423534388,1.0130536161951795,0.9588257465864158,0.9751658400626179,1.0455940427393147,1.1601882562012522,1.2615781390260428,1.3802072960335918,1.3735781760738315,1.4150203431842354,1.564518323382133,1.6310771101335468,1.7089540557250396,1.9346567547603515,2.1247252796324165,2.14666577990449,2.115006995367631,2.0169104453717144,1.9676344669234345,1.8866091569012742,1.8246925055796552,1.8387835192317952,1.7992947027213293,1.6724509110119534,1.5445161984777098,1.6026555190028589,1.865143584969059,2.0248170386936546,1.9192421880744652,1.8641164587740489,2.016941578279143,2.1491328179109197,2.2376564738443054,2.2273784509696117,2.123218998012199,1.8861689472381007,1.6786511018852486,1.5851303712577318,1.623172394433914,1.7317592851985386,2.0127137368718206,2.356174502328415,2.4809405602367804,2.613224617863785,2.6838572364647253,2.5565074515185304,2.5304217412811014,2.4690521385583737,2.24882106099108,2.11720612988171,2.1698540925679968,2.1636720656496315,2.198850540403449,2.2913491691454495,2.3975265138823376,2.486102284966901,2.5403521813859737,2.557460452450276,2.443637355463529,2.351899534827608,2.3010168460273417,2.137242756096031
2.742714001668516,2.8724567828489875,2.85203418929063,2.8361146238398187,2.753173055535081,2.6680500611808013,2.6330669741791457,2.665442288703147,2.6802469175749932,2.643964367508009,2.6230346823408897,2.631581856569783,2.656640826526668,2.6877933265354996,2.720915593351952,2.6665290832117976,2.621972259815074,2.532119646190055,2.3630108435137323,2.348882529744135,2.3067177823241143,2.2179435101966467,2.2254569383131457,2.231262494537455,2.3170094680552027,2.269818199554055,2.2233715307514013,2.2251416165084232,2.0820887121770055,2.0073509358618766,1.9727569025923093,1.8768096457005372,1.7172627348137388,1.56855676984367,1.5899829191288628,1.7638372080976372,1.9706240572369338,2.1026506523987956,2.169739000999845,2.2133656146826324,2.34525652194706,2.6154731633447397,2.8591671948005093,2.840540825282836,2.735838846393604,2.8172613959873978,2.9311341275116614,3.06335940739687,3.2682766048468306,3.344062962717011,3.3000424713713064,3.1964106629829447,3.1368648920281084,3.116111183857637,2.9523952835196328,2.7669754348521316,2.691030555193472,2.5119049417861388,2.2288355378301414,2.169944070010109,2.0841717226161998,1.9384678085440334,1.9145318645270422,1.8200751874186185,1.598356609962275,1.4672802271290686,1.3403853165957678,1.1367976835395102,1.0504811447980467,0.9996435040902926,0.9437373221531735,0.9355370553437858,1.0145300655719145,1.157230607731274,1.3645949184979818,1.4099567891572047,1.4841053854037234,1.6509343983701823,1.7005347676131437,1.8142944855702277,2.0595556414594562,2.2036067803509334,2.141153496410298,2.086891874128594,2.0982527896940413,2.110619369600704,2.0258519202851515,1.9449116153456334,1.9324993296220434,1.7669485098966726,1.5747672616646433,1.4638445196924879,1.5600345316264475,1.8195672942951957,1.9851176538917796,1.905284433656123,1.8599677595180535,1.9801688500470267,2.082235548920729,2.114935824762,2.071701160097477,2.001227549388814,1.8750819808490837,1.7082255085840587,1.6377015100625267,1.6880010969470276,1.7468590792656737,1.927945256904893,2.3179423272203787,2.556172655876122,2.750998872803215,2.864520897134766,2.790154110786128,2.7542213179685544,2.639230443806683,2.37402914681347,2.161696651132224,2.088999304789932,2.0686523430455437,2.1123079930812065,2.2086024060104577,2.2981597876472994,2.346510090876623,2.393077840343089,2.520468829079997,2.501024320893697,2.484742144273173,2.5205211650187773,2.3627737287598984
2.809114800974559,2.8875216961855115,2.8606828293384408,2.8454445513493485,2.7309675371422637,2.613479677640303,2.565758474362559,2.6907887946231783,2.814799855406755,2.7509012661289614,2.736864666416574,2.730161628993647,2.6462972501427218,2.7093572175994454,2.7907355354582517,2.702423462697107,2.667030593903662,2.723307313099917,2.6292965898430696,2.5668463375574246,2.533579560616194,2.498380450570576,2.5052722595389967,2.550733369587524,2.631612314126895,2.565887429165771,2.4997313293171115,2.451960699301949,2.2645871734914995,2.2148221226714626,2.221189421930112,2.1480642782697412,1.9895322927436712,1.8211320883989925,1.7614524348100666,1.907278260746434,2.1233373728682716,2.247086086029062,2.305541411130682,2.4210463678903014,2.6091948396348763,2.9096104309236703,3.1868417653615704,3.175370368792629,3.0117910228042497,2.9896696337650934,3.066135082353108,3.2444536892398825,3.398125779677097,3.382177062841213,3.3142831901506553,3.267190344681287,3.2332706004630203,3.137747864327079,2.901049482516902,2.758675661481886,2.7323397896130883,2.5828687046849215,2.344634531727379,2.3172054680755076,2.284157445265232,2.122893412830798,1.9696244942405383,1.8548219760239655,1.6928554259618496,1.5786105541491282,1.415571844642354,1.2639512161367106,1.309318786455744,1.2770422660351246,1.0846101140285223,1.0055823121269674,1.0850429319453792,1.196466590894835,1.4970350043122973,1.6294740214403984,1.6553116480474317,1.7545225390523917,1.8518980802269271,1.9803656515819925,2.1391143243701927,2.277701586057991,2.3471321256248956,2.3279551897495416,2.3200710611024014,2.3768051928413105,2.3742652670954096,2.2098204262805257,2.056841326903365,1.9198903165778078,1.8024136634382348,1.7000930142921047,1.7245190251527471,1.8237493899953932,1.831753048227048,1.793445426840844,1.808615190169298,1.892370666926397,1.9513407870832409,1.9671680892908705,1.970136187137168,1.9020293490326505,1.7920981697531462,1.7835937726585598,1.8019934619558542,1.8491585624876117,1.8743988825579456,1.968187333925049,2.3385138095484206,2.6428057929086197,2.8846621293614385,3.0192275945704923,2.9833996517448482,2.9654841366741613,2.7466223652691704,2.479771625318257,2.346786331420197,2.2516929251280517,2.1567725977633407,2.238238366066648,2.3845243727398215,2.461351304439878,2.4803342292387147,2.5078201262171853,2.618000398441844,2.6731152776086105,2.708907181960244,2.7529703020116147,2.633914382975757
2.7666443796114737,2.8913556079798917,3.012870870852507,3.012870870852507,2.8913556079798917,2.7666443796114737,2.6159572781998905,2.5715535441033888,2.7032007538037583,2.720098642112453,2.7666443796114737,2.788574236332416,2.7289045571481587,2.8289999047384984,2.88975762523199,2.7666443796114737,2.694122798755016,2.7543364392224348,2.7666443796114737,2.7666443796114737,2.7666443796114737,2.7727338130329313,2.8011998733844323,2.8571505839138203,2.953261869296648,2.8843684187668304,2.7927156922707357,2.678766134081944,2.4089071611802346,2.2949918157931695,2.290389919367922,2.228321455232393,2.090197658265081,1.9460624716556956,1.9227742405418524,2.074066292565141,2.280821170175188,2.4110659370191745,2.4846818525592407,2.587838926782556,2.7666443796114737,3.038631967652293,3.2623889750055373,3.27138897533208,3.260386019553811,3.292198552042985,3.2846549335409274,3.3107574755862346,3.397231764287244,3.4830213813535216,3.4810260254482093,3.4189332190155732,3.324525241344228,3.1912386966766024,2.9913090577895334,2.91454372397545,2.8882947125473053,2.6866605191481705,2.4479658314893795,2.3375859524284426,2.290389919367922,2.2177692920793937,2.1880260403801306,2.101884823693937,1.870756799939061,1.7155359160055383,1.5410669543490794,1.4076336434413346,1.5136526593469775,1.554214525873947,1.3378810285665466,1.2335964903869745,1.3001334878139046,1.350310264840927,1.591930837240544,1.7155359160055383,1.770661363291537,1.9568413001862097,2.086842773934185,2.193153715580029,2.290389919367922,2.3826413179442123,2.458813234051988,2.4954887637886127,2.45075614150961,2.50306776767866,2.5715598077920347,2.425875464036171,2.2045416655670578,2.078955862250028,1.9972703379224401,1.875226758145415,1.7972142675190548,1.7697878310541275,1.7781054455470087,1.8007035280092711,1.8443117736477475,1.9275862673940185,1.9551343856587535,1.8435701351006395,1.8141354591243701,1.729724328531835,1.6010457213351417,1.7111423985492467,1.8038460295086232,1.8577426657623601,1.9581659219061704,2.163697814308111,2.4745161233728177,2.615504333359328,2.7941405478518946,2.9345675788329,2.9296829703753353,2.995697855215045,2.9093575678910377,2.7344223028163355,2.658834661210588,2.5654659808828066,2.43209857229162,2.4663321243424723,2.6016673404832202,2.670735669637743,2.673819482452484,2.6752915383414484,2.714790952656874,2.7535467988528604,2.7701965738454306,2.758721318131826,2.6289704030618335
2.816493485570851,2.985821472821187,3.159773605950041,3.12838890417539,3.0194269639209455,2.8863285673985217,2.695751298431486,2.5961377205237715,2.6775356606489047,2.7364831454380116,2.788919243865318,2.790493240544851,2.735964417023803,2.8171672328576127,2.8811617664088827,2.823360566327698,2.799189259014836,2.895711869847318,3.0026900910018965,3.0300374150012255,2.9908446542578937,2.973301041989839,3.0491619110377504,3.1337509778849935,3.214080083367024,3.147057308684165,3.070073250424855,2.9314484400016254,2.5883553990814225,2.279548082879347,2.209090431960296,2.2049779789784076,2.1351961524194123,2.037050430797803,2.135641363200105,2.2919541494428834,2.459431439341326,2.598692978948277,2.6804874313447034,2.7545013137567436,2.9165891893899287,3.1413568176733153,3.3468162546342017,3.4193863419705046,3.510507872046556,3.581550094324917,3.545600202527912,3.4585257871460264,3.489196012814854,3.6130762189086156,3.6347193708668004,3.578733393692335,3.481823027878372,3.33428626499838,3.1887120849797905,3.095235229858523,2.9591322814155974,2.7111384206616704,2.519135613341728,2.387434227187431,2.3090716230829216,2.269855069228454,2.3114936371164934,2.276753572328579,2.0003174443342875,1.8205561852723107,1.7066730043717282,1.6414410509270245,1.7153560204927707,1.7328260121549401,1.5911071770264762,1.5316868579589262,1.533179159514509,1.5258420349376678,1.6972367128981312,1.8216444343816423,1.9359268289547824,2.180787791542423,2.299062471269781,2.3377094895862616,2.402162890280866,2.4550991635422683,2.471365547355401,2.548572604804795,2.5972275132909686,2.6876436510940187,2.7342283362684108,2.6161700654994813,2.4612062302862645,2.2413402945970105,2.1039086964518816,2.0007872506684556,1.8417419098449779,1.7067168798779775,1.7993831661913042,1.884008123083916,1.9057287696355136,1.9715869732018916,1.9927181947776214,1.8217806325025296,1.7370505584464342,1.6676247240674458,1.5799481930608956,1.699407481771256,1.8607259330157573,1.9439093954765658,2.1005002293816215,2.4034339144185988,2.6189401595388215,2.630412595108249,2.7425604670823716,2.857461749716598,2.8724629574804488,3.009362848982081,3.090326991561327,3.0067450427283013,2.9388017136145965,2.877273648474847,2.783547967579979,2.7875413511061393,2.8494482655089155,2.848424998458569,2.7821496510398123,2.7514737850826307,2.812627513190037,2.842009378255875,2.7804991839244897,2.6458569514223633,2.4646943033473536
